# 3D point list with one line of data per point:
#   POINT3D_ID, X, Y, Z, R, G, B, ERROR, TRACK[] as (IMAGE_ID, POINT2D_IDX)
# Number of points: 336, mean track length: 7.199226305609284
6787 -0.29586119009928136 0.10852831062775167 10.501066177211161 122 115 89 1.2539322038449494 14 10 21 15 17 6
1808 -0.30812989281334352 0.27701876537261938 10.078976291581677 124 115 84 1.0887965073313159 6 1086 7 1634 5 1866 2 1060 1 967 9 1735 10 1614 12 1714 28 1444 10 975 27 1543
1810 2.5436016280945424 -1.1813913741982545 11.198475661161181 81 82 68 0.76071933369749312 8 1250 7 1644 4 1565 16 1576
2701 -1.3056030665177654 -0.69756528109442129 12.290592848686922 105 105 88 1.465271630313975 2 2215 25 1179 6 2165
1815 -0.34388773280836338 -1.0087458786708634 10.737986294089527 134 128 106 0.18224825432101041 6 2215 7 1669 9 1270
2182 0.77016038070126547 -1.1621407940366733 10.20462632843418 32 33 17 0.46904070590990371 3 2462 4 1890 2 1574 9 1533 14 1299 16 1545 13 923 19 1074 17 1050 27 1427
2699 1.8657854090916375 -0.26956634812691999 10.822146440736676 101 99 84 0.34780244196252524 4 2515 2 2210 16 1464
6805 -5.3611206445163289 3.7563530361750934 9.570382740314562 0 0 0 1.1118813332861457 21 247 28 1428
1818 0.76776593866395915 0.66370765202302429 11.014656864639587 99 97 82 2.2161033615974861 8 1101 7 1706 23 262
6286 -0.29871673068274995 -1.6938049816154548 11.177713361994112 52 50 34 0.3279519771262176 14 684 21 683 11 912
1823 0.58860159281289681 -0.97938887920954343 10.085620978766439 87 84 69 0.48498875869455782 3 2418 7 1720 2 1621 15 1439 16 1588
1824 0.64122541324269955 -0.97045791341372811 10.112995333531416 96 93 77 0.92483673123030574 3 1995 7 1721 4 949 2 1344 5 1248 1 820 9 1482 10 1101 14 1334 15 1213 16 1590 21 1267 11 1572 13 1302
1826 -0.050319472103937994 0.39159944412538206 10.212868206583295 33 33 20 0.42295063322589083 3 1190 6 1092 8 1928 7 1726 4 814 2 1787 1 980 23 1906 14 832 24 1671 15 960 22 1717 16 762 17 930
2508 1.7284856285742336 1.1724909955389073 12.770459236612913 99 105 95 1.5879781536345055 4 2366 2 1141 24 1431 15 1918 16 2075 22 1382 19 1201 18 1470
2134 2.2935581092017525 -1.6267089855605794 11.205779318156775 47 48 34 0.81119516736293407 8 2082 4 1506 9 2119 25 905 3 889 16 1496 27 1347
3521 -0.64629938874017856 -0.96282523852154256 11.273782580168859 116 110 77 0.41648070534845327 7 669 9 633 12 614 25 1183 8 1981 27 716 26 592
1832 -0.30537220494118339 1.021322447734756 10.78796771329554 89 84 64 1.4224827860586486 8 1479 7 1772 4 1325 2 1989 1 1050
2651 1.5914722797107244 0.72892407176531759 11.419150321447722 79 76 61 0.53758586492688021 4 1286 2 1896 15 1770 22 1839 16 1915 21 1783 13 1552 19 1403 18 1048
3530 -5.9822972984428331 -1.8558739419174988 14.710445987076733 170 168 155 0.57459816060385083 7 1174 9 712 10 811 12 674 28 498
1834 -0.26767583615569862 1.0775336988194593 10.52071550167776 55 50 29 0.22564198881407566 6 1956 7 1783 5 1975 9 1797 12 1354
1842 0.15036103581230609 1.6261682187482072 10.375733281858103 99 94 79 1.1556632810140703 8 1540 7 1813 4 2419 9 1833 23 1784 15 1083 22 2199 16 1209 13 1031
2524 -2.3214857023086708 -7.0882130903860698 16.137088860117096 141 143 132 1.6950962783946455 4 1638 8 1108 2 1227 9 1311 10 720 12 1261 6 1195 20 1151 27 794
2733 1.2275056853503252 0.67603386473014049 11.167513791920696 105 103 88 0.46326836336281785 4 1277 2 2366 1 1780 14 1493 15 1752 22 997 16 1110 21 1685 11 1234 13 980 19 1390 17 1444 20 1572 18 1034
1847 1.6177261795684867 -0.75892744122471567 10.625400400922265 74 72 57 0.4371721650700135 6 940 7 1869 4 1605 2 1200 23 1584 10 1126 12 1502 25 1858 15 787 22 1491 16 1368 21 1289 13 604 17 1541
2214 1.8583144586266001 0.29687163029483427 11.10976965241116 53 54 38 0.30061937980556797 3 2039 4 2112 15 1959 22 1655 16 1030 13 1248 19 1593 18 1417
3537 -4.9842962898515246 -6.0100603656079574 14.788702465208004 188 187 169 1.6814555278381542 7 805 9 764 28 1002 26 492
1848 -0.59673919626381011 -0.59026954389526243 10.593809906163912 90 94 80 0.21539758116665805 6 2097 7 1877 25 1622
2731 0.37445368466584922 -0.93919268488148522 9.9797539582314467 48 49 35 1.1631735234435048 8 1592 2 2352 14 1341 16 1594 13 1303 18 1163
6837 -0.70812064939864161 -2.2928725871900224 13.311129361603303 128 123 104 0.98061541477913106 21 311 17 381
1850 -0.29759569886671011 -0.71832503770917588 10.226230475693717 46 43 22 0.43605098134155262 6 1831 7 1880 2 2317 5 1291 1 848 9 1521 28 1334 24 1511
6318 -7.2119679441190803 -7.988598492133093 13.565022829489161 184 187 160 0.59873637737878282 23 1273 21 1155
1855 -0.69960704803801488 -0.45722417431459084 10.649612565248324 87 88 72 0.64537811862708228 6 2058 7 1902 2 2217 5 1331 23 1639 12 1529 28 1349 26 1572
1856 0.13379790620052781 -0.7046119730256083 9.9065615105211187 72 72 62 1.4421572620615395 7 1903 2 1445 4 1608 1 2132 9 1553 6 2105 23 1593 10 729 22 1222 16 1369 21 1302
1858 0.20344286092340633 -0.70755146950196657 9.8919175639953725 71 71 61 0.61874291718329377 6 2107 7 1908 4 1609 1 2131 19 1737
2813 0.25488601385050869 -1.6734155851038071 9.8677237165675429 33 32 11 1.5723835453580832 6 1573 5 472 10 535
1863 -7.8024561589577477 1.1001630070437531 13.90426348221049 163 161 149 2.4220619075721248 6 1863 7 1941 25 1866
2294 0.08636198762029014 1.7931666538798574 10.184910073538715 49 47 31 2.1379514846736747 6 888 7 1074 6 2035 8 1565 3 1788 7 791 2 1176 5 1182 1 1940 9 1031 23 967 23 1703 28 620 14 933 24 820 15 616 21 1517 17 739 26 819 26 1232
1866 0.23529284879039122 -0.98994413671031467 9.9151608547182377 25 27 14 0.69345330824739271 3 2420 7 1951 4 1938 2 1342 23 1534 15 1435 22 1436 16 1583 13 1088 17 1060 18 1709
1871 -1.2568465558239432 -0.1725138447395794 10.532747623882008 100 97 76 0.83696930794518343 6 693 7 1975 2 717 5 532 9 848 23 982 3 1827 10 603 1 549 12 820 28 569 14 596 24 747 15 908 22 1611 21 842 11 678 19 753 17 925 20 582 27 1252 26 975
1888 -0.2213398019499177 -0.046138531063360848 9.9883455894297803 102 97 72 0.16317667817064638 3 1963 7 2057 9 1696
1890 1.5258122416664921 0.23280258104176549 10.879496242393639 87 84 69 0.49934612569588799 6 1064 7 2067 2 697 5 1840 23 1244 10 1584 28 1546 18 950
2717 1.0539535617588931 -0.42060756162589774 10.372503416495071 48 49 35 0.34171412526425415 4 2582 2 2258 16 1739
1896 0.52213801829168793 -0.36426003400592893 10.089282858069014 79 80 62 0.31840633296335774 6 1636 7 2132 4 2558 3 1784 15 2252 19 1189
2715 -0.66494694240437002 -0.58584840852298548 10.710204990013446 116 118 104 0.3945187984839712 4 2571 6 962 2 2253 1 2054
1903 0.88563004879665952 -2.1394268886463683 13.311278091434442 110 105 85 0.19137763544507227 7 27 5 21
1904 -7.3377026898607047 -5.2439908412024092 13.935875553249966 181 178 163 0.52704207171019202 7 240 4 210
1906 -2.3646151569478917 -2.5773929661974919 7.2094042659198996 155 155 143 1.6259088060645441 6 848 7 441
2797 0.29555526626085227 -2.7626838707216965 12.808244178286065 114 112 91 1.8228542647621919 7 346 5 309 10 239 28 302 27 478 26 465
2278 0.84245396071523382 -0.71789850777658171 10.223005025107726 13 14 2 0.29835156907647864 3 2343 4 2678 16 1645 13 1320
2795 -6.2590446904929946 -3.2686962608711467 14.326319338882405 194 193 175 0.75735771664595875 2 239 8 393 5 301 9 454 23 335 12 457 28 237
6382 0.017653482339366311 1.9383606144391508 10.161678858757719 44 38 25 1.1981823032248078 15 1979 22 2200 28 1649 5 1416 19 1544
1922 2.4673809951453407 -1.5312962067188449 11.289015567088217 36 35 23 0.77693960108305904 6 498 4 104 14 405 15 367 22 211 16 193 21 460 11 457 17 634 20 944 27 434
2071 1.3661416943665325 0.084589601709409351 10.724537573965236 81 82 68 0.36307860972345352 3 1978 4 1172 15 2070 16 2303 13 1423 18 1345
1926 -5.4679073527391404 -2.0467368019752263 15.166681535691382 154 155 139 1.2645936235879225 3 228 4 141 16 167
1931 1.2163939853683854 0.92969368061340674 12.076840235646078 87 85 70 1.4493716412562168 3 112 4 167
2584 0.93753858734553674 -1.1081151771664992 10.29822469219504 48 46 31 0.39214140545666543 4 1355 2 1590 5 1969 9 1638 16 2443
1933 -0.40421808400030423 1.9436504043780189 10.404189607505257 23 21 13 1.3400648490562737 8 93 4 172 2 59 5 94 9 373 23 277 10 69 28 106 24 87 15 63 22 60 16 54 13 120 26 249 18 90
2578 0.39401290159956986 -1.3638986026612125 10.109257777943007 55 53 38 0.4912775289158744 4 980 2 1531 1 1443 9 1886 25 1169 14 1270 22 1374 16 1516
6175 -0.2406757023063178 0.86427320331569613 10.808186852973472 115 112 94 1.6114675436325625 6 1932 5 1952 1 1843 2 1966 16 565 14 292 15 297 22 523
1934 -5.2031373313304679 -7.1242081842568865 14.608359983828965 178 176 161 1.1242303089587362 3 300 4 177 2 121 6 113 5 162 9 124 23 193 10 133 12 183 28 118 14 217 24 221 22 202 26 240
1939 -4.6798354267082685 -5.507272615769871 15.100065049834972 179 176 161 1.2628040951647783 6 124 4 192 1 124 10 111 28 89 17 147 18 156
2151 0.53690753098923705 -0.59672590162150507 10.071166385551287 67 65 52 0.69447689207109986 3 2556 4 1623 16 2453
1947 -7.6975731433927992 -4.606215170973166 13.360557767724364 159 158 146 1.0272513590971755 8 384 4 257 2 225
2664 0.079689620589251386 0.8910233318356453 10.628407442568344 20 20 12 0.54761639615798918 6 1940 2 1975 16 2013
1949 -3.2738413828753843 -5.7231070324583238 16.634197945841972 190 186 171 1.1071644414472936 7 92 4 263 26 81
1950 -4.8136103881276444 -5.4627002622912899 15.153457219984693 157 155 140 0.8390658618220096 8 220 4 266 2 261 5 250 9 272 23 183 12 197 25 204 14 206 15 198 16 202 13 297 27 269 18 245
1971 -0.29306613003807308 -8.2338867689677642 17.897604340687078 169 164 144 1.5002387644653485 7 1105 4 433
6714 -0.42589569192375204 -0.045477411516980211 10.395640446768288 85 87 74 0.85810533036359937 16 2271 19 572 17 479 14 599
1973 -5.7359840777438018 -5.9328951621131782 14.627081011626467 165 162 147 0.49202176156493965 6 386 4 444 10 310
1974 -2.935469180642182 -6.0148853964765108 16.14276482631492 192 189 174 0.18707840588806618 7 237 4 445
1979 -7.5576563621855666 -2.3654041832392165 13.584687542882453 155 156 144 0.80797380068599756 6 469 8 415 4 497 9 259 12 306 27 418
1981 -7.1085804390299066 -1.9356443266231953 14.390498152385717 152 152 140 0.2133167616312282 4 504 23 846
1982 2.6664325238666491 -0.41206896559375306 11.291487406881828 34 22 0 0.75422328028037933 8 571 4 514 25 983
6736 0.1026945286093988 -0.50534678643530828 9.8840630633852857 38 40 29 0.18093894500657973 16 1697 19 1158 18 1205
6433 -0.81227760426287177 -8.5892313531537905 16.92164102156103 186 183 166 0.74599915053349175 21 893 11 490 20 494
1987 -6.1293942859488677 -4.9259473377143426 14.440397011045032 139 138 124 1.0001884209065337 7 413 4 550 1 393 9 759 23 293 10 321 14 279 28 462 24 1228 15 434 22 329 21 511 17 391 20 979
1989 -5.4251742672232268 -3.6835526455889021 14.855324825414282 139 140 126 1.051510682123957 6 399 4 580 5 518 1 388 23 556 12 456 24 503 22 473 21 557 11 502 19 470 17 470 20 1481 27 412
1990 -5.3484709701716078 -3.5944606136383102 14.923893088191928 146 144 131 0.47617886699244849 3 532 4 583 24 725
2135 1.5815193520395294 -1.4851679938257425 10.739902206624896 89 87 72 0.61876645381249329 6 1314 4 1516 2 1514 5 1689 9 2120 12 1791
3364 -0.23700976077773711 -0.16085689717218318 10.006607005577512 51 48 28 0.29875312644839508 2 2152 1 1942 14 1761 22 2051 21 1424 20 1100
1995 -6.0569837166449716 1.3195184799047515 15.052900578572197 154 155 141 1.1116743764066577 3 636 4 625 15 473 21 417 13 462 19 266 18 175
2345 -3.3526636135253489 -7.7267367680160755 15.132039305747849 174 171 156 0.8305619307668517 6 267 2 207 14 220 24 277 22 210 13 306 17 243 20 252
2648 1.1014390698243668 0.69339714322005486 11.146011646008303 60 61 45 0.42368539851668324 4 1282 2 1892 1 1788 22 1837 16 1905 13 982 17 1564 18 1598
1997 -6.7648628068857617 0.81285125823785054 14.382494251884529 181 178 163 0.99248490186945237 7 472 4 633 9 338 12 558 28 348 27 370 26 385
2063 0.54057070779777783 -0.081462328015634258 10.1921495095553 80 80 68 0.36091928256795575 3 1930 4 1134 2 2135 15 2145 22 2048 16 2381 13 1419 19 1708 18 1289
6746 1.2531076720912318 0.60480402860683236 11.080771496805621 69 67 54 0.25360020402469291 16 1853 19 1358 20 1561 18 1569
2005 0.55729092641604816 -0.35114799394450352 10.102563933018361 41 43 30 0.54008862475549713 7 731 4 698 5 774 9 845 25 1013 2 748 28 667 14 649 24 741 16 597 11 1463 13 587 19 603 17 872 27 551 18 545
2006 1.3309343493115826 0.27938790965053534 10.829566451798298 57 57 45 0.49227005537837554 3 765 4 700 1 961 23 1996 25 1786 22 935 16 776 19 736 17 1287 18 1725
2215 0.87430233924153844 -0.94659368268886346 10.231666202227654 93 94 80 0.36756236174000567 3 2410 4 2133 2 1634 5 1254 1 1463 9 2073 15 1454 22 1450 16 1600
3380 -1.0943275566590727 -1.7207240399745238 18.310996655118846 105 105 86 1.5289762955633908 7 1396 1 2053
2011 -6.2643373667970517 -3.1102508725383657 14.48049699119991 148 146 133 0.77240007092487295 3 245 5 124 10 85
2728 15.354761832223666 -11.12000756566375 38.974682105697404 177 174 159 1.2951761287769159 7 1307 2 2331
2013 -0.41273533206743329 1.2084361066548686 10.675976695138262 97 93 70 1.7896365858416592 6 1963 4 750 2 2012 16 324
2722 1.1183976448823429 -0.50907957347472699 10.402231822463307 49 47 34 0.38113972284383579 3 2574 2 2282 16 1704 18 1216
3379 -0.37612281451103668 -0.47685615600416226 10.446601983706332 69 71 58 0.20997304369379508 6 2056 1 2041 9 1564 23 1986 10 1157 12 1542
2014 -7.1304914712132828 0.51142407144692836 14.135501444403767 155 156 140 1.4116040181106868 3 657 4 775 1 632 23 661 14 727 27 822
6768 -0.25149091375517524 -0.79425775148510203 10.301254104152422 32 36 26 1.15231169283707 2 70 15 89 8 125 7 75 5 43 9 99 10 93 12 54 25 126 28 58 24 79 22 101 19 81 1 86 21 142 11 102 17 108 20 133 26 90 27 77
2019 0.53334958594549997 0.33369967753125557 10.436290604112889 80 80 68 0.68804298696185462 3 1170 4 819 2 898 1 971 14 821 15 945 22 2208 16 770 21 1070 19 746 18 964
2021 2.320129816304803 0.13141902548571716 11.230301540953768 72 74 60 0.46902190106447894 3 1300 4 846 2 1014 6 1040 5 1075 23 1814 25 1741 28 1535 14 554 15 902 22 1963 16 1240 21 1037 20 1475 18 935
2027 -7.1780887193026039 -1.3588905380660186 14.004367585322669 155 156 140 0.43136958078153514 3 877 4 880 25 575 7 878 27 789
2680 1.4575503024497822 0.05483212025269775 10.739974620690814 48 48 36 0.41575875591629829 4 1998 2 2092 1 2190 16 2318 13 1645
2029 0.61041118282053486 -0.40714230945086211 10.119905309563144 41 43 31 0.55472035805660691 7 1971 4 895 2 947 1 880 25 1689 22 1250 16 1414 13 1140 19 1742 18 868
6271 -0.4620740597197035 -0.87873665922300492 10.785856220852446 124 123 105 0.32595679784892206 14 656 21 559 11 1237 20 1574
2030 0.76531137369459701 -0.42949533995875655 10.210342913403208 36 36 26 0.49132240189514981 3 1070 4 897 23 1646 14 1835 15 1271 16 846 21 1360 11 1480 13 900 17 1131 18 866
2035 2.4899280013282619 -0.98655092167111536 11.129591561266443 97 98 82 0.65890457454612594 8 752 4 945 9 1276 23 1154 10 668 5 539 28 1323 14 1088 24 1491 15 1020 26 1582
6778 2.5252385769889814 -2.1406386814822351 11.726504266423685 99 93 81 1.8130068800931962 22 470 4 574 23 1966 27 734 10 1415
2037 1.0706729366568191 -1.0329851092005744 10.364722503740147 84 85 71 0.71198287941352389 3 856 8 1089 4 953 1 1684 9 1279 23 1162 10 870 10 1087 25 1897 14 678
2038 -7.0281791255279975 -2.6518201765652329 13.991993524370585 153 153 141 0.94645053822838143 3 925 4 955 1 777 14 619
2119 -1.8433427662061093 4.64756631106615 19.164614422607396 0 0 0 0.32534129827637392 6 1154 7 1765
2632 -0.096793945108401488 0.50817454928611572 10.322705378347139 72 73 59 0.36968633860286515 4 1419 2 1842 14 1917 22 1779 1 1745 13 1533 17 1413 20 1562 18 553
2045 0.76081652664654731 -1.438456589953431 10.297296932571122 75 76 63 0.46801355003842016 6 1324 4 984 5 953 23 1120 10 758 12 1581 15 1371 22 1364 16 1502 13 1276
2626 1.2469218775862589 0.024917085699307645 10.630084466222412 88 89 75 0.10643201158266306 3 1949 2 1817 22 1998
2046 0.79755723385415467 -1.4897582149269748 10.345017733320933 76 77 63 0.5714991575259627 3 878 4 986 2 1506 8 2030 5 1684 23 1446 25 1755 22 1351
2049 0.075933162777403723 1.4151171803401961 10.358556084434985 52 53 37 0.4755710129811283 6 719 7 1801 4 1013 5 874 1 1889 9 1013 28 1367 14 1643 22 1531 27 1106
2992 0.7517600394355014 -1.4987648693162929 10.297473944867093 88 86 72 0.63559426327762503 2 1295 5 1680 1 1422 14 1243 15 1182 22 1176 16 1488 19 1044
3511 1.5528103319632662 -0.049097103300570939 10.752618368597977 102 101 83 0.45318594089123987 5 349 9 552 23 395 25 338 28 357 15 162 16 285 13 257
2053 -6.8649274992195721 -6.0595278954548712 13.869162106294775 188 186 171 1.7087164530492938 8 1110 4 1043 12 1052 28 822 24 458 21 479 27 1215
2996 -0.52433775473692812 1.4170843095910759 10.43459427079579 110 106 87 2.1312603918774817 4 2401 5 1701 9 1011 23 2015 10 1184 10 1014 12 979 25 1291 28 1363
2054 -2.4444454080626987 -7.3072042845571294 15.943343134471618 126 128 115 1.2837864861074189 6 863 4 1047 2 425 5 1457 1 375 9 1466 15 416 11 559 19 240 17 424
2057 0.11674038579477157 1.7526641746893712 10.268481673423485 31 33 22 1.6992615482023015 7 1825 4 1067 2 2074 1 1939 9 1029 23 965 12 1302 8 1066 25 1109 28 1384 3 973 14 1667 19 100 17 1326 20 453
3000 3.5621357930326907 -1.43182513919063 10.414704120723668 188 181 162 1.0060677305515746 6 1817 5 1715
2059 1.1050356475098631 -0.30657372940763755 10.439578545288747 88 89 73 0.40251416990435174 3 1803 4 1103 16 1624 19 1235
4026 -4.5486707929185144 -2.0616975169057201 15.605938223901791 185 183 168 1.2518593874180961 10 1050 16 557 23 844 21 609 20 782
2060 2.3945534643799329 -0.28017375537512013 11.102001898434734 43 43 31 0.59698202429534442 8 2142 4 1104 2 2214 1 2018 16 1471 13 1375 17 1158
3519 1.2520269905215755 -2.6428078731499713 11.630683845655676 29 31 20 0.33385580836681999 6 829 7 860 9 615 28 395 10 389 5 502 24 977
2061 0.150646609108785 -0.12094163802503755 10.001538938133779 0 3 0 0.24933520206580143 3 1923 4 1126 2 2145 15 2155 22 2060 16 946 21 1780 19 1715
2062 -6.2956995201374202 -1.086330963709691 14.56699262827186 153 151 138 0.77741128187503139 7 1207 4 1131 5 959 9 1190 12 1899
2065 1.2246673923288072 -2.0062302702782504 10.84379378666725 85 86 70 1.3359031112483792 6 1041 4 1151 2 1270 1 1341 10 809 6 1270 12 1875
2944 1.9241510603453531 -0.42698773223612035 10.820379720130232 117 111 96 0.7183299583824525 7 1931 5 1353 25 1659 12 1573 14 1123
2067 -1.126125292981051 -0.098275715753539314 10.406504555213578 107 107 92 0.51748897289722773 3 1890 4 1161 2 1917 5 1765 1 2189
3970 0.77088928456365424 -1.5863086567653268 10.386450009729506 56 57 41 0.37577157209140166 9 1936 23 1972 12 1809
3463 1.9626392910912611 -1.8243372450792812 11.121583898300928 103 100 83 0.48566479064145079 6 223 9 239 23 176 25 144
2069 0.91804512570259966 0.058706143287288834 10.476999162118073 98 99 85 0.3620470316503881 3 1986 4 1167 2 1897 15 2085 16 2314 13 1301 19 1671 18 1335
2948 0.11574897974206742 1.5201655437699066 10.307128760851047 87 82 66 0.23849199821278522 7 1807 5 1388 23 1679
2070 1.971861098671488 0.090343853742054628 11.033260286721585 62 63 47 0.47286563818176669 3 1951 4 1170 2 1010 5 1809 15 2069 22 1978 16 2301 13 1209 19 1661 17 1226 18 1351
3457 -0.2376122873837436 2.121641408749587 10.448179882197012 200 194 180 1.3972177536389421 3 1798 23 280 9 183 21 1546 14 966 26 177
2073 2.5593471634754068 0.17308314829666757 11.479595413632145 47 34 13 0.6156987283603188 6 1745 3 1961 15 1797 22 918 21 1474 19 727 18 953
2952 -0.40836770799910421 1.9008430787381434 10.397856106396945 5 6 2 1.0586653206809531 4 2447 5 1408 24 1479
5525 0.15668587135600395 0.6889544916974002 10.635843528317981 23 26 19 1.6802206051423003 4 2271 15 1772 22 1854 16 1917 19 1411
2074 2.0232053900818063 0.11507685011649553 11.079066126461003 64 65 51 0.64330529065437103 3 2540 4 1177 2 2113 25 1745 15 2056 16 989 21 1455 17 1236 18 1362
2075 -1.0721282163036518 -0.012075328662413426 10.449881672489212 98 100 89 0.52316517414948904 6 1741 4 1183 1 1604 23 1794 14 1383 15 1715 22 1656 16 1027 21 1602 11 1151 17 1376 20 1537 18 1435
3978 0.066159545637534803 0.065694929058524074 10.065936219920498 32 34 25 2.0774601748296324 8 31 3 20 23 42 6 55 7 72 2 41 12 57
2076 -0.21486487087997874 0.084252286641773019 10.009912277805519 26 16 0 0.39233023539388867 3 1151 4 1184 2 1021 1 937 23 1829 14 1688 15 2050 22 1603 16 2278 11 1411 13 1429
3471 -6.4472528373425435 -1.7382479205217019 14.372263449574362 192 189 174 1.2246335111151601 3 493 9 293 10 252
2077 2.485876793018523 0.1495925756560624 11.504919111289665 118 111 91 0.2531125018222809 3 2538 4 1186
2956 -0.12850198707835514 -7.4952275702900533 16.145953016678259 170 165 146 1.2893055968670515 5 1456 10 1763 25 813 14 329 22 206 1 263 16 258 21 488 11 1031 26 1754
2078 0.73784624266383447 0.13864878389812357 10.426566062513439 43 43 31 0.40606870084067431 3 2028 4 1188 15 1787 22 1818 16 2263 21 1473 13 1439 19 1637 18 1292
6030 -0.45877586134819953 0.83642063210665496 10.783292524251095 56 58 47 0.38317938765389997 15 1040 16 693 19 499 18 612 20 999
2079 1.0173757874165428 0.16049943629563798 10.580287347515634 83 84 70 0.49841395122978932 3 2022 4 1192 5 1830 25 1777 12 1686 28 1537 15 2015 22 915 16 787 21 1043 11 1645 13 703 19 1632 17 905
2080 1.343190250034993 0.20367367343058448 10.777182449359367 59 60 46 1.0128302782958318 6 1796 4 1200 5 1836 22 1612 16 2228 16 2236 17 1265
2081 2.2937073867904454 0.2438289254185195 11.309333595772861 90 90 78 0.43081110845344983 3 2543 4 1204 15 1629 22 1618 13 1465 18 1408
2085 0.25061954199983427 0.29233280263883754 10.264954165725342 69 69 57 0.56488888295779793 3 1304 4 1212 2 1056 14 1391 15 2156 22 1665 16 1031 21 1067 13 931 18 957
2900 1.9200726897277793 0.036333676765265492 10.976721551427506 80 77 60 0.38010989482417634 7 979 5 1071 23 1229 12 1654 25 1736 28 1523 14 780 22 893 16 1239 21 1435 11 1390 13 687 20 1683 27 1535 18 738
2086 1.5731173355895978 0.32812092900765727 10.976144804606434 64 62 48 0.33899697144501723 3 2057 4 1214 2 1747 14 1378 15 1579 16 2169 11 1611 19 1576 18 1425
3776 -5.665177409175806 -7.9893206485058661 14.018668951080851 184 183 162 1.0451397734107288 1 255 23 116 12 120 14 520 24 229 21 730 11 306 13 486 19 649 17 621 20 920 26 103
2090 2.0452365584123813 0.38489349628240638 11.281511032303849 93 91 78 0.55846582656249566 3 2056 4 1224 2 1062 1 1686 23 1875 8 1884 14 1396 15 949 22 1129 16 1046 21 1598 13 939 19 1455 18 980
4821 1.202454509306345 -0.87064367368407847 10.443579358625749 81 81 67 1.4078016603556505 10 1779 25 1235 28 1327 14 1544 1 828 15 1225 21 953 11 1556 18 830
2091 1.8922843131208229 0.38206573026806762 11.185922822364052 93 94 78 0.56793114022972613 3 2059 4 1225 1 1685 23 1876 22 1689 16 2191
3930 0.1803568967792322 -0.57782346388680927 9.9272703033905429 105 103 91 0.74871182891485211 2 1836 8 1714 23 1616
4814 0.0052672017266619893 -1.3354547309562157 10.039387649271131 124 106 82 0.31447771571565863 12 1772 28 1258 26 1739
2092 0.054571151617859137 0.36409155282368705 10.233319829236867 54 57 48 0.3463738054113441 3 2110 4 1229 1 1697 15 1615 22 1705 16 1048 21 1617 13 1502 19 756 18 972
3791 -5.8847844626642418 4.6623092976128806 15.432860333313787 161 159 144 1.945846668193564 9 527 23 282 10 297 22 498 11 294 27 565
2094 -0.27737921536348265 0.3596015259847572 10.134821779146616 95 80 45 0.41687702988960496 3 2113 4 1231 2 1781 14 1423 15 1621 22 1714 16 2275 21 1798
3417 -1.4950705755772162 -5.7403992971936111 16.732962443203267 148 146 131 1.8343578548323045 1 1285 9 760 12 1282
3784 -4.0050257029529304 -7.5293199565150184 14.801355235999186 188 185 170 1.6428373110818122 1 191 23 196 25 188 14 219 24 223 15 148 22 207 11 212 13 148 20 434
2095 0.097594580566545214 0.38607067164103726 10.276125096278138 16 18 7 0.36821308393414626 6 1874 4 1233 2 1784 15 1623 22 1713 16 2279 21 1622 13 1506 19 763
4818 -1.3397010461162004 -0.10509133328744669 17.566994232868126 183 181 165 0.78251870301011905 28 1296 27 1371
2096 1.6639147152123348 0.43129890444608987 11.106535145608674 97 98 82 0.43402889741991174 3 2082 4 1234 2 1216 1 1703 23 1896 14 1407 15 959 22 960 16 1051 13 944 19 761 17 1375 18 987
2097 -0.45853128180460734 0.36997204149533802 10.468835330945865 66 65 50 2.0339460617212612 6 185 4 1238 5 362 2 377 10 216 28 160 24 772 2 1793 14 575 11 429 17 783 20 367
2976 0.86234113922996958 -2.0765016843180604 10.732276671469023 90 88 72 0.47961138832856054 6 1260 5 1591 10 706 25 1526 24 989
2101 2.2688146312624609 0.50890894535271025 11.50719452943928 101 99 86 0.41497059421608279 3 2083 4 1245 2 1803 23 1903 14 1425 15 1674 22 1738 16 1066 13 951 19 1300 18 1007
3799 -4.5283716709753721 -5.9645777487078453 15.2974229940536 193 187 171 0.60462258225468302 9 394 10 314 28 233 26 302
2102 0.051766273629425798 0.44581313798501432 10.302273256846439 65 65 58 0.4135862172346722 3 2127 4 1247 2 1075 6 1886 1 1735 14 978 15 969 22 965 16 1059 13 952 17 1392 18 985
3489 -1.8946742266632861 -5.0600005755449837 16.138486458314656 174 171 153 1.2521488803816831 1 287 5 521 9 447 2 449 10 371 14 342 24 719 15 435 4 551 21 529 11 335 20 1243 11 870
3792 -6.5719628993521333 4.831942034773963 15.035097332372402 189 187 175 1.9717304321524822 7 539 23 285 11 388 18 257
5557 0.23511886805738288 1.4210780958116396 10.447967143906459 90 89 74 0.71310930489473145 2 2032 6 1995 15 1924 16 1193
2106 0.16113423969399332 0.57142605880877995 10.508676622277154 52 55 46 1.5423769757852421 3 2146 4 1269 2 2011 1 1759 23 2014 22 1808 15 2230 16 1856 13 420 19 1366 18 354
2108 -0.94057263402536484 0.71469803063861315 11.112344237574142 104 100 81 1.2444897417002652 7 2023 4 1300 6 1102 10 988 25 1809 28 1574 26 995
3503 -7.5041007180628885 4.1753073884560621 14.043824797354734 191 192 176 1.7525524484132879 7 538 9 525 25 481 28 330 26 637
2109 0.50995782715576854 0.87916149441376346 10.816214543370915 95 92 77 0.32109593640760042 6 1937 4 1312 2 2370
2988 -0.14818960423391125 -1.5443007506907891 11.279382462792313 113 112 94 0.45922746709700196 6 1595 5 1671 25 1369
2110 -0.45055300894715467 0.87395628564650218 11.005107420042117 78 78 66 1.7620371931704142 3 2175 4 1313 28 1596 10 1683 1 1122
3497 -7.7487545900747525 -1.7916383177882726 13.526582910129267 165 164 152 0.17998962371605232 8 432 9 483 27 425
3800 1.2596593391494311 -2.978062626479197 12.594269814266045 52 53 39 0.48740935926599382 2 458 3 252 23 338
6062 1.8130390952078035 0.94920146124170302 12.483160294573391 103 105 91 1.5866403652992758 15 1052 22 1938 16 1170 13 791 19 1535 17 1223 20 1121 18 625
4825 0.77619685595319921 -0.82723929983603728 10.159981156217858 73 67 55 0.6510881204372434 25 1351 28 1335 22 1471
2111 0.18809046816331107 1.1425268361352998 10.50974879145846 78 79 65 0.28440957532903782 6 1962 4 1328 5 1356 25 1272
2112 0.16030979065745618 1.1697164072792199 10.520574073493149 75 76 62 0.89346604851062961 6 618 4 1330 2 2000 1 1866 25 694 15 1059 16 509 16 2063
2113 0.25515791608018079 1.3119349654612398 10.499140810841881 50 48 33 0.65851194586549933 6 1982 4 1341 2 2022 5 2019 22 1055 15 1067 16 2076 8 1513 21 789 11 1337 19 707 17 1262 18 879 13 800 3 1004 1 625 2 608 7 779
3056 -0.15404377581258016 -0.39018309985448296 10.036918108620116 8 7 2 0.4434705889184411 4 889 6 707 2 749 5 1022 8 718 7 727 3 806 1 883 9 914 23 1192 10 911 12 885 25 1006 28 1458 14 750 24 1557 15 835 22 1263 16 918 21 1389 11 1456 13 915 19 893 17 1162 20 1339 18 1245
2115 0.026332091561428454 1.3657792689759385 10.353469591846208 83 84 69 0.25970995130523777 6 1993 4 1348 5 1379 1 1888 9 1820
4082 -7.0358011259718456 0.37348818542531925 14.30797645101984 190 189 171 1.128891930561414 23 648 10 605 16 660 20 631 27 1411
2116 -0.30205846094854188 1.425473563765947 10.208590799882476 95 96 80 0.57934748617709819 6 2005 4 1356 1 1895 25 1300
3575 -3.5538902877995509 -4.8863748915974154 15.825219877342125 193 190 175 0.64371730308748198 5 806 9 1104 25 1396 7 2095 28 1036 27 1265 26 1433
3569 -6.8871008373994131 -2.566258934091779 13.809502228753599 160 158 143 1.8465427725557635 5 1199 9 1045 10 495
2121 1.4827771297351693 0.63577459057686414 11.219367751269603 103 101 86 0.49104706756602462 3 2129 4 1388 2 1093 1 1003 23 1927 6 1881 14 855 15 670 22 988 16 1100 21 1104 11 1223 13 755 19 788 17 951 20 747 18 1027
3064 -5.3654458011077555 -4.1261521724022323 14.769431898518294 87 86 77 1.5471833730836992 8 1121 5 1483 6 1207 4 1464 2 1250 23 1043 25 863 15 763 24 1238 10 1297 16 874
2122 0.19939315918650422 -0.54774291641733563 9.9240011218286686 10 12 4 0.83543511957480643 6 2055 4 1397 2 2294 1 2097 15 1532 16 1389 21 1774 19 1147
2123 1.5742074047311152 -0.48016673534100757 10.6202456309412 61 61 48 0.34391051634558267 6 2062 4 1399 15 1558 19 1167 1 2067
4090 -2.6476981249393541 -7.8259448659366244 15.783308197656966 138 140 129 0.62520796651813559 1 1262 10 711 24 936 11 710 27 1185
2124 1.2599672224355507 -0.44588770064363548 10.497853499247807 46 44 29 0.29038113311372221 8 1717 4 1400 22 2158 16 1729
3583 -0.37870047745190438 -2.4450668517395591 11.452838692962343 9 11 4 0.41559785654020254 7 1177 9 1160 12 1304 25 1458 27 738 26 878
2125 2.5144098346794106 -0.92102712135627696 11.108693547294454 90 91 77 0.46700715316618102 6 2188 4 1409 15 1474 16 1353
3068 1.6063776658098892 0.96287588508747557 12.108205683683954 137 135 120 1.3562161946679527 5 732 1 1034 10 1663 24 1348
2126 -0.90016468284495299 -5.2097247399701079 17.185302125010402 124 117 98 0.41612688686423865 3 1323 4 1438
3577 -6.0463550021202819 -2.8747292681455923 14.456807904426151 188 186 173 0.51381154378268978 5 832 9 1133 1 1221 24 1547 20 1565
2127 -5.6131322642055226 -4.4642329908978624 14.63893101037629 174 175 159 0.55701701934839398 8 1119 4 1447 9 1108 25 856
5571 2.5823564679392117 0.11214488679121966 11.495370262504416 48 35 9 0.71317378984804236 4 1176 15 2038
2849 2.2476559582467508 -0.14025788260160033 11.059620135160126 77 74 60 0.77854189806513219 4 520 5 684 1 383 23 633 6 1182 10 1518 12 1622 28 1651 14 629 24 1600 15 557 22 578 16 587 21 436 11 470 13 387 19 476 17 455 20 558 18 502
2129 1.7228217615365693 -1.9994304067653383 11.080643161398527 69 66 47 0.81211953812132265 6 1495 4 1469 23 1392 2 1440
3008 -0.66024342889520371 -0.0068262779349998661 10.528598638417645 99 101 90 0.36711827253104284 2 2323 4 2024 5 1790 1 1594 15 1626 22 1634 16 2213 21 1589 18 1429
3366 -0.29796121531945907 1.7833232512607879 10.056109820355504 111 114 107 0.39474583723890644 5 1406 1 1945 16 2129 13 1648
2132 0.54844283939024796 -1.6163898313109173 10.273432997246674 71 69 56 0.75462236167296948 6 1298 4 1495 2 1287 9 1230 23 1422 10 1461 12 1816 25 1910 22 938 15 1342 26 1261
2853 -0.40585392174932849 0.33383455585133359 10.468141751422676 121 121 93 1.198588596474321 2 683 6 1187 14 839 21 1094
3527 2.3093316486415114 -2.3084164569366732 11.699596895394048 105 102 83 0.49092538295547505 7 439 9 690 10 799 12 1114 28 895 24 987 26 572
2133 -3.0825057624652206 -3.5458745453514746 15.93663612685064 155 153 140 0.90981032151263863 8 825 4 1504 1 1197 27 655 26 1467
3012 0.57840700129786515 0.082219164793427793 10.291594905041585 98 92 78 0.25744156208273039 6 1058 5 1818 23 1823 11 1400
2137 -6.5139880518576234 -3.1155387670311301 14.190132762912652 156 154 141 0.82008722714041049 6 843 4 1529 5 847 1 1206 9 1123 10 704 28 1065 14 1118 24 1500 21 1019
3016 1.6108862589497446 0.23010615836383952 10.905427905096953 112 111 93 0.85885492294085475 2 1037 6 1805 5 1841 1 1642 23 1243 7 998 25 1044 28 1547 14 598 14 1842 15 715 15 1704
3374 0.86100806182920275 -0.22316345964242015 10.325068491871516 96 94 81 0.50329278954194756 4 1110 1 2000 23 1741 14 1792 16 2421 18 1260
5589 0.47239133040247078 -0.11246462625787677 10.150373653793654 20 23 12 0.42456117432154172 3 1910 15 2153 22 2217 4 2094 13 1404 17 1191 18 1276
2138 -3.9802883634719226 -3.2575562102040205 15.650440260853832 167 164 149 0.52520336729055972 8 1270 4 1531 2 1297 5 1497 23 1331 10 1309 12 1317 25 1401 28 1075 24 1259 11 1546 27 1291
3883 0.085673170880560506 -0.21668728568758822 9.9794887821818516 96 106 105 0.26608226787817951 3 656 6 556 23 1211
2140 -6.5174072372403717 -2.9916722970938232 14.243163351108015 179 175 163 1.8381299574577115 3 554 7 1145 4 1546 6 836 5 1198 9 1128 23 1058 10 721 12 1313 25 881 28 1067 14 1925 24 968 10 707 11 1638 20 1556 26 850 28 1071
3535 -5.6527456058296304 -4.4109359705549842 14.737223799111634 161 159 144 1.6565280118381793 8 832 9 749 10 768 12 1070
2142 1.5867633817341991 -1.2763597733449372 10.66792020037021 61 59 46 0.76888898878795242 7 2114 4 1551 2 1561 23 1137 9 1261 10 549 28 950 24 1402 15 1407 22 999 16 485 21 535 11 909 13 617 19 1069 17 831 18 684
3529 -4.7315183786153661 -1.6986882205943414 15.434428518518668 190 187 172 1.7021271935074216 7 871 9 701 10 521 12 661 28 880 27 986
6094 1.4511618578640764 0.44845762231253911 11.013577216746553 43 44 30 0.26034718438458054 15 2221 16 1769 21 1790 13 736
2143 2.2734871366428373 -1.2248844313626968 11.039438018318021 87 85 70 0.48921728522804847 3 2482 4 1558 2 1332 8 760 5 917 1 1510 10 1710 12 1175 28 1291 15 1421 22 1408 26 1558
3372 0.155781869111104 -0.15690714801294611 9.9848546395059881 72 72 64 0.41656402084451799 8 1844 1 1975 16 2406 4 2469
2144 0.80113106266925338 -1.1339700726437514 10.230012162729265 76 77 62 0.30408160403592532 3 862 4 1563 9 1272 1 767 24 1411 15 1208
2147 0.97183941333843382 -1.0667508205683962 10.302252832980944 58 56 43 0.50755627630312172 6 2219 4 1575 1 1530 23 1520 15 1432 16 1573
3986 0.74456445953219064 -2.9069751114505293 12.292554718617676 0 1 0 0.78238458586891435 2 247 5 240 1 180 23 340 4 249 7 589 10 236 12 314 9 282 28 243 11 230 26 545
2148 2.3876571224577656 -1.0579151634870227 11.048248845258188 50 50 38 0.74851225419484591 6 2227 4 1580 2 1613
3479 -3.4871035033475715 -7.7470660049468707 15.13607054969626 194 191 176 1.4659386801858585 5 176 9 376 23 195 6 268 12 280 25 252 28 280 27 337 26 499
2149 0.39533205470917865 -0.85660155804805249 9.978879239601179 65 67 56 0.60018271206565532 3 2375 4 1594 22 1464 16 1613
2964 0.12151736758800716 -0.85855337826491107 9.896012080517453 8 10 3 0.13262207864214234 6 938 5 1504 23 1560
2150 1.4132526455047798 -0.62081267277434082 10.536396570324268 66 64 49 0.37248612260621544 6 2100 4 1621 2 919 23 1606 22 1503 11 1518
3473 -5.8334351084140463 -1.4835792150074194 14.847113022549726 189 186 171 0.60792006019311018 7 366 9 296 12 321 25 288 28 250
2153 1.2182879547480006 -0.525044168934928 10.446654140382817 86 87 71 0.41143125435847255 3 1052 4 1633 2 2286 5 1334 1 2075 10 1770 28 1450 15 2216 16 1398 21 1342 11 1499 19 1154
2968 1.9924810864773406 -2.7567163840966846 12.107014043380527 95 92 75 0.31223922191281434 6 834 5 1522 23 1714 10 1753
2154 0.24394418398216636 -0.52334282206117755 9.9293548392591511 16 19 8 0.50732716073402417 8 1726 4 1634 9 1597 24 1543 15 1256 22 1422 16 1391 21 1340 17 1111 18 856
2155 -2.5541062364602425 -7.6929447942922291 16.092924373777496 191 189 173 1.6436170022228187 6 867 4 1637 25 1372 17 1011
3994 -2.2818200166591982 -6.9741925098990656 16.260421656222452 85 86 79 1.4772660194664311 8 1257 4 1639 23 1028 7 1110 9 1087 10 725 1 1273 12 1056 12 1264 25 1379 24 1220 11 1039
3487 0.034693207923350108 -6.9300301609304729 15.822497560077647 176 171 151 0.74636131095696978 3 422 9 430
2157 1.141283317329729 -0.8211797816260934 10.394070799494319 58 56 43 0.38129829041331381 3 2373 4 1643 15 1481
2972 0.94437561424499694 -2.6060998722002751 12.988404510010007 69 63 46 1.8020150929122247 5 1548 9 1154 10 714 10 1752 12 1422 9 1426 25 1435 28 1120 27 673 27 1322 26 1059
2158 -3.0050771808071257 -5.6983535118426145 16.22707092509566 185 183 168 0.5602834137023055 4 1650 27 1248
2159 -7.1437417128235037 -4.984939569849006 13.665937029670372 167 161 147 0.5070293767867492 7 1320 4 1651 5 1468
5603 0.051016499143011873 0.51527069307895901 10.361786103187464 92 92 79 1.2027906657326792 2 190 5 197 1 216 23 260 8 673 3 298 7 1023 9 978 6 377 10 280 12 941 25 1075 28 193 15 273 4 800 5 1904 1 991 23 737 4 373 14 477 14 848 24 781 22 296 22 976 16 297 21 366 21 1660 11 265 11 1207 19 227 17 357 17 1405 20 362 20 1557 26 1166 18 349
2160 1.4418545996854304 -2.1060096782338031 11.038318379662506 90 87 70 0.69371699765327399 7 1457 4 1698 2 1261 1 1330 28 1173
2161 -0.3588632015407115 -2.3823679567283289 11.404080301165854 3 4 0 0.5242361600471851 3 1588 4 1707 2 2333 8 1346
4066 0.81873252036225364 -2.518158488421395 12.935162584887527 91 86 67 0.60559112643198554 5 580 9 481 10 406 12 488 28 428 24 983 6 463 26 453 27 675
2164 0.30080624606605322 -1.7742848211235942 10.458100612778146 185 180 160 0.21034737597000522 4 1756 27 132
3559 1.2488566773055805 0.89957843717922714 11.627991367953348 94 96 85 0.60543466162973436 5 447 9 976 10 414 28 602
2165 -0.37274939514237027 -1.9945779175660618 11.286181458088835 56 56 39 0.41321663390778451 8 2106 4 1786 2 1474 1 1380
3044 -0.87004529370119243 0.55147176256789354 11.252091225095668 49 48 33 1.5656419862163558 4 2258 5 2027 23 1911 10 1628 12 926 2 1882
2166 1.625762252407797 -1.6097864391616288 10.780055467884646 62 59 44 0.22979891744821082 3 1417 4 1795 23 1432
3553 0.45197185510313359 -0.21297077295242911 10.089164810904792 85 85 73 0.74619144936481263 5 683 9 929 23 496 12 1636 25 655 28 675 14 634 15 559 22 727 11 976 18 510
2169 0.69443512945864072 -1.5092346835710888 10.290639011737452 35 35 23 0.3167182448649587 8 1927 4 1810 2 1505 22 1348 16 1487
3048 0.4387348894087853 0.9303170787661863 10.765959003871242 29 28 20 0.47451367301990033 6 353 3 391 5 448 2 357 7 527 23 474 10 417 12 599 24 620
2170 1.4565678679410849 -1.5415840992252703 10.702481554527155 57 55 40 0.4760895701167393 7 1591 4 1812 2 1294 5 1678 9 1238 14 1244 15 1364 22 1352
2172 0.92606447455617802 -0.85591032150385293 10.257857873876473 53 51 36 0.49225339949390956 8 1609 4 1839 2 1660 22 1465 15 1472 16 1621
3567 -0.39499782656276944 2.0124882385308482 10.429640764150154 74 66 45 2.2046835041472734 6 515 8 1070 9 1034 25 1111 18 1507 14 1697 13 1643
2173 2.0247684902324026 -1.4178485256304558 10.944264364472268 66 66 48 0.52841027429359477 3 1973 4 1844 16 1527
3052 0.078110857064150066 0.18028150118509412 10.110702421878107 63 65 55 0.37138887809559185 6 650 2 561 5 710 8 1004 3 762 28 798 20 711
2174 0.16677590496485895 -1.3472632567334162 9.9973165343541073 61 62 51 0.53980216222935817 3 1287 4 1848 23 1466
3561 -0.31997573216062403 1.0409842232185704 10.671072194812666 74 72 51 0.48957694521394962 5 744 6 1950 9 997 10 640 28 746 24 1438
6126 -0.4133945603348777 0.75124556028034184 10.600229351614027 1 4 0 0.21368379662953604 15 1904 16 1991 18 1071
2175 0.75485665323410578 -1.3479182272099632 10.261710668791949 34 35 21 0.31136856116973777 3 1618 4 1850 2 1539 23 1467
2176 -0.30549790791710846 -1.6702142395841988 11.177333237232473 7 13 0 0.51780958926958709 6 1569 4 1858 1 1446 9 1991
2177 0.17603604562922692 -1.2973580115527585 9.960318838018237 32 33 17 0.60456900577390305 6 2344 4 1860 9 1865 2 1315 13 1288 27 1407
3350 1.5845700483270313 0.68952156706568513 11.365107877042744 88 85 70 0.63020112503827641 2 1868 1 1777 14 863 17 1441 18 1593
2178 0.89924480872541068 -1.2812639970296802 10.312002638056635 33 35 22 0.18350184230038571 7 1651 4 1872 2 1552 12 1647
3859 -5.5947756603591996 -7.8510868178424005 13.896616230302671 187 188 170 0.49385709334853939 1 1133 23 1011 11 1023
5392 0.085429492628622677 -0.81311696764522967 9.894154494068923 97 88 61 1.2541162744603105 14 1097 15 795 22 1214 21 955 11 1209 16 1360 13 1104 19 947 17 846 20 1262 18 832
2179 0.43716984108995605 -1.2594767977014283 10.071195118632517 72 74 60 0.87765732202051006 3 2481 4 1874 15 1395
2837 -0.70221830967041154 -1.1251536269919391 11.630215229440415 143 139 120 0.28444421427413208 6 1354 5 621 9 818 10 860 12 625 25 1759 8 1706 28 941 24 1412
2181 0.52072811060113489 -1.1621429869303137 10.106412989316835 81 82 66 0.25909208761761993 6 2237 4 1889 2 1572
2183 2.0138518934437486 -1.1969570424641685 10.866936945036414 58 56 41 0.48345146476124601 3 2476 4 1891 2 1576 16 2441
3348 1.9961181074119996 -0.14843022608771297 10.948469700713035 110 107 92 0.67551511036344747 7 1983 1 1768 14 761
2184 0.62957886748423864 -0.85227475781233364 10.104194588887186 34 33 18 0.27158193703054306 7 2149 4 1901 1 2162
2185 1.9355918712863425 -1.1305680860899725 10.830799170709467 95 93 78 0.66015541155738633 3 2466 6 1783 4 1909 2 805 1 810 23 1081 10 1073 12 1440 14 1315 15 1211
3358 0.1468212680706881 1.1193916576015577 10.528088804108956 98 95 80 0.48448526856128132 7 1785 1 1863 15 1056 21 1478 19 827
2186 1.7999898212406722 -1.0984456942361247 10.753376561910724 63 61 46 0.75590842055742735 7 1671 4 1913 23 1511 12 1446 24 1420 15 2202 22 1428 16 1578 27 1437
3867 -0.97527871645508035 -3.446373692194054 17.133416686165134 178 173 153 1.2139847452080195 8 1126 23 1060 24 1275 11 1557 21 993 20 1485
5919 2.4294260198495068 0.37737315881323064 11.608496668461529 50 34 14 1.8338369251662363 14 41 22 42 22 267 1 67 16 165 21 32 11 53 19 26 17 43 20 41 18 151
2190 2.059357166189105 -0.8929810464241108 10.894096415589605 90 88 73 0.57022648113802543 8 1674 4 1924 22 1468
2191 0.75960212821813056 -1.0240211538839075 10.188476910853543 98 96 81 0.21414991019109905 7 1704 4 1925 2 1607
3356 -0.57583879315452791 0.74461828180247958 10.626573432249959 77 63 36 0.61416643958485773 2 1938 1 1823 14 1580
2192 2.6223686569745586 -1.0923307751637026 11.273699461290391 22 10 0 0.67542386161374457 3 2459 4 1926 16 1601
2193 0.68417301455571711 -0.99250807402178909 10.135213940248372 58 53 39 0.27568541058855045 7 1714 4 1936 14 1907 16 1338
3430 -3.9214915904406742 5.7321812283481348 16.302708268758902 182 183 172 0.4936011112607564 7 64 25 65 9 53
3939 -0.4071517245554237 -0.30321982111373741 10.375897618188256 75 76 60 0.45079686924578422 1 895 23 1730 22 2052
2195 2.1539781172555341 -0.021523377957576372 11.059720356579017 91 92 78 0.67791786915262198 3 1899 4 1952 2 2122 15 2119
2917 -7.4885958149465912 3.7973817195158137 14.048782220581764 188 187 173 1.9073062082461658 3 1795 5 1189 9 791 2 509 10 1041 28 780 24 832 26 631
5402 2.5019602394955998 0.14842268022580099 11.37715524980826 47 31 5 0.45483289879984257 14 1564 15 906 4 780 22 909 16 995 21 1464 13 1226 19 1638 17 1245 18 942
2199 -1.26096330833869 -0.12311829560804469 10.530922392906676 115 113 98 0.73915713240358827 3 1861 4 1992 15 1983
2200 0.54177757261324844 -0.10911751285082581 10.196220587462987 30 30 18 0.30314816554302165 3 1911 4 1994 2 2142
2921 2.0371160447762899 -0.45012641159653244 10.872915619984278 81 78 61 0.45048428143906422 4 707 5 1210 1 720 23 618 10 902 28 661 14 1119 24 1069 15 775 22 747 16 843 21 979 11 963 13 595 19 968 17 866 20 1304 27 901 18 710
2201 2.0939837899991303 0.059659363853596013 11.093524057023588 100 101 87 0.50185841355383531 3 1937 4 1997 16 2313
3438 2.3194064054305641 0.40956427870973239 11.478406920499225 72 67 48 0.8834645361693132 5 70 9 105 10 49 12 109 28 63 24 60 27 117
2202 1.309795760144628 0.06263806023529804 10.703438020079982 42 43 29 0.38093121062921459 3 1966 4 2006 16 2308
3947 0.84902914035745725 -0.063692704084982121 10.370640062577499 96 94 79 0.82648076459878062 5 1795 23 1787 28 1501 24 1608 15 870 22 2053 16 817 13 1181 17 1200
2206 1.3797098318040564 0.11057798423097658 10.748492846750125 35 36 22 0.46605421443518547 3 1990 4 2026 2 2190 16 2282
2207 0.70840664576439527 0.10247478158393057 10.382720951725151 90 91 77 0.36072024060703933 3 2014 4 2029 2 1668 15 2065 22 1961 17 1556
2208 1.2848494966820179 0.15396706937667815 10.717622704406846 37 35 22 0.38733370022677988 3 2544 4 2054 2 1680 1 1613 15 2027 22 2248 16 2254 13 1444 18 1367
2865 -5.9262910846174472 -2.2714253418355077 14.720348529462704 193 191 177 1.2807911899706252 3 1378 5 826 9 714 10 770 12 1326 28 864 24 1310 11 1346
2209 0.28617069174638154 0.14734172498828318 10.185693416635729 77 77 65 0.48015211571051608 6 2312 4 2062 15 2037 16 2256 21 1701
3024 -0.12927753773569414 0.48380994315058579 10.25176156847299 52 50 36 0.30140203399678561 7 1738 5 1900 12 1738
3382 1.109486944824742 -0.53797203615475808 10.387229334843925 97 94 79 0.45248567946507029 6 971 1 2080 15 1536 16 1393
5424 1.8907903946071591 0.8438428327035431 11.800829335838985 59 59 47 0.50142918736063458 4 781 15 1019 16 1141 21 1723 19 1446 17 1572
2211 -6.326999321806948 -2.9873142102101142 15.020658079630865 184 180 165 0.7848154609341218 4 2078 9 1372
2212 -0.66039909348495296 -1.3729655604183648 11.651859496152795 138 133 111 0.50737993452681585 3 1777 4 2082 2 798
2869 2.2683241887234753 -2.640986808397813 12.124758621212136 196 189 166 0.77711192835684573 8 1314 5 868 12 1236 28 1130 24 1294 27 1359
3543 -0.39381730691340067 1.2172815832310517 10.347262396992539 77 73 48 1.1928826272060151 5 750 10 678 12 769 9 798 28 756 11 1335 24 1448 26 1020
2213 1.0771342134422091 0.2054710454089696 10.650507366440326 75 75 63 0.50248379465383164 3 2036 4 2083 2 1706 14 1772 19 1613
3028 1.0680270906450788 0.63984615280569201 11.028960468382909 115 112 95 0.78120320959175493 2 1097 3 1204 5 1912 1 1761 23 1932 10 1648 24 1092 22 990 16 745 21 1678 17 1430 20 752 18 1028
2217 0.57677631277027308 0.48642659613420458 10.602495143530598 56 56 44 0.54678176050136906 3 2123 4 2190 15 1682 16 1067 18 1524
3032 1.7122473689419497 1.1662839881270963 12.769798102032075 106 112 98 1.0802253453648587 6 1912 5 1945 10 1675
3390 0.977274654533548 -1.3454979641149842 10.370010735068007 66 66 54 0.38873231223678834 2 1541 1 2182 10 1500 15 1386
2218 1.3157256578886842 0.52567633292408034 11.024745905506725 59 57 44 0.58103891584214162 3 2111 4 2200 2 1825 1 1740 23 1989 15 1689 22 1756 16 1073 11 1203 13 743 19 1453 17 499 18 1545
3899 2.0511442906781565 -2.6578025068556053 11.894539013684895 68 67 49 0.68099691237109161 3 942 23 1338 25 557 26 1083 27 757 7 1388
2877 1.4556669663462531 -1.7309878503023439 10.796919144410507 85 79 65 0.34892793314000004 4 999 5 931 23 1106 25 899 24 1350
3551 -1.134047010329398 -0.32256229379865398 11.661106308946614 38 32 11 0.16958863367664984 7 914 9 879 12 852 26 1536
3545 -0.50486053865571989 0.79253446779061987 10.748522219081437 73 59 30 2.2120417978238462 7 525 9 809 10 287 5 189 12 953 25 113 8 140 27 926 26 354
2223 1.8064588458084685 0.61484888550085559 11.375041435166969 48 49 35 0.43223502019136623 3 2116 4 2229 2 1849 23 1922 15 1721 22 1791 16 1850 21 1664 11 1619 13 751 19 1356 18 564
3388 -0.3015863857398477 -1.0560795700349757 10.689583701542274 139 137 116 1.3460967146381619 6 2225 1 2166 12 1976 10 1077 5 976 28 1280 11 1542
2224 -0.87477744995124485 0.4733517117638753 11.434360071447511 43 41 19 0.32526013779191826 6 2314 4 2236 9 1692
2817 1.1019471971693198 -2.6703491045128684 12.235390504627109 66 65 47 0.099550144771613197 6 825 5 501 10 394 28 398
2225 -0.79969602384798699 -0.25946582087227898 10.577634045219952 26 27 13 0.11913731497585507 6 1648 4 2245 2 2154
3334 1.7254384099930691 0.40960318776073995 11.115384577649777 75 72 57 0.32094802535875844 4 816 1 1691 23 1886 17 1364
2227 0.31827552796078218 0.17608552065679792 10.205095950869671 79 79 67 0.4963555296401943 3 1917 4 2284 2 1034 8 1906 9 1722 12 1698 14 1737 15 910 22 1610 16 1976 11 1136 13 545 18 931
2228 -0.14054850534393656 -0.11036794178148085 9.9988579110964988 39 37 16 0.36220934141174493 3 1926 4 2317 2 2137
5434 1.2226852693326069 0.91556152338568131 12.035453450923084 72 73 59 0.92662432505882208 4 2337 15 1050 22 1134
2229 0.69366135426202302 0.95653420879272277 11.807331822577504 91 91 81 1.3376098082175918 3 2167 15 1054 16 1173
