# 3D point list with one line of data per point:
#   POINT3D_ID, X, Y, Z, R, G, B, ERROR, TRACK[] as (IMAGE_ID, POINT2D_IDX)
# Number of points: 355, mean track length: 4.1935092508340919
1505 3.6762934248985686 5.5773022195996464 15.183188415275307 194 142 33 1.4718678302882431 5 4534 3 4363 6 2970
118 1.8525162216062405 -1.7905690032014123 17.622466283159696 97 103 85 0.34936253584381471 5 583 10 428 3 529 12 509 6 1055 7 475 13 602 8 759 4 482 2 522 1 479 9 326 11 401
119 2.4341983915455332 -1.7115463264324156 17.543943169974373 14 20 7 0.96137721649135521 5 586 10 454 3 961 12 512 7 481 13 361 8 380 4 737 2 846 1 945 9 849 11 1739
4070 2.8572861018101068 0.64406582197973306 17.87643257807925 16 0 0 0.43315893512579656 5 5222 7 3782 8 6092
1829 -12.357154939936548 -9.130923958787923 25.196306542131456 14 17 9 0.25550164723803259 5 637 12 430
1108 0.2940717524290532 -1.7291238713126147 17.435060297760831 136 143 127 0.25860647860976216 5 2093 3 2067 12 1090 6 2179 7 1742 13 1670 8 1729 4 2144 9 2226
455 1.2422551725899769 -2.0321591413591449 17.854262068885436 5 9 0 0.42326867116756878 5 3870 10 2040 3 3882 6 2156 8 2911 4 5141 9 3046 11 5644
120 2.7109149556138932 -1.7145853052786326 17.598827117174082 19 25 13 0.55488852148758394 5 587 10 430 3 527 12 514 6 410 7 209 13 500 8 266 4 480 2 847 1 761 9 316
3563 -9.2357503141400432 -15.282522477982397 36.137259936237768 6 3 12 0.4959211007491201 6 1914 7 1515
121 2.107972426112295 -1.5661687434571536 17.465999670941802 102 109 93 0.70011132936951659 5 593 10 436 3 966 12 261 6 1061 7 483 13 362 8 767 4 485 1 486 9 329 11 405
1000 2.0041520639346619 2.0614017276339331 18.61098274670589 189 128 36 0.43587254734591335 5 1646 3 1606 12 1626 7 1192 10 4500 13 2101 8 1213 6 2673 4 2404 2 1118 1 2537
449 3.2246738682101528 -1.9068884273466116 17.823789827048181 208 214 202 0.26271445701476936 5 3522 10 2669 3 3862 12 5539 6 4395 4 5180 2 2716 1 1933
2855 -12.418790862648596 -5.9478764474449193 23.339724950641873 0 2 0 0.8793482980653089 5 1213 6 1368 7 4480 13 3599 8 1644
122 3.7115896526140473 -1.5770563045259631 17.570431367511883 15 16 7 1.5820650494812398 5 594 10 432 6 412 7 690 13 979 8 387 8 1752 13 268
2026 5.4931883599023807 5.1273782609242859 15.995394914862542 175 117 17 1.5545396116510954 5 1494 12 1465 6 1681 3 1497 7 1393 13 1264 8 2534 11 5050
123 -5.8107406485389879 -2.1276678067160475 21.945517319122377 123 70 1 0.54231528887210245 5 595 10 446 12 483 7 197 13 573 4 513 2 339 1 321 11 349
507 -1.6356357553402372 5.981917435144954 14.953931998964974 142 86 1 1.5276249488718294 5 4587 10 4256 8 2338
3144 -5.4674499181390788 -10.729182903982535 28.856307402010838 1 0 0 1.8225527729017064 12 4679 6 3763 8 3635
1519 -0.20339194844603822 5.7233203832598463 15.0015431102498 179 126 30 0.6921341593495679 5 5865 6 4923 2 3396
124 3.1108935129392279 -1.4618153024770726 17.411139208017115 11 17 5 0.37243767407789713 5 598 10 437 3 534 12 249 6 415 7 218 4 484 2 524 1 477 9 323 11 395
125 3.5952027602885956 -1.3534114029862285 17.320500893969477 9 13 0 0.98818850143826842 5 601 10 438 6 1064 7 537 13 378 8 804 4 486 2 527 1 475
1004 7.1971985855529539 2.4615181964666242 18.574896071770667 216 166 45 1.5102717728830761 5 1618 3 1614 13 1137
453 1.3873258161005209 -5.8015315683045223 25.661583026343521 164 108 21 1.4927482003493604 5 3824 3 3636 6 4119 7 2196 4 5339
1513 0.004347975004159196 5.5658620539421788 15.181556201840403 185 130 37 0.282080782721707 3 4428 1 4179
126 2.3250467433454625 -1.3328901753989526 17.239050712685426 100 108 87 0.42295050308163123 5 602 10 447 3 329 7 545 8 389 4 489 9 424 11 408
127 3.7397894610474141 -1.3163065699885708 17.249256139493234 11 14 3 0.46604524369537831 5 603 10 440 12 527 6 1065 7 576 13 215 8 394 4 741 2 844 1 472 9 317 11 493
128 3.0049302725515226 -1.2505825322730795 17.237500987218429 7 13 2 1.5152384331777176 5 607 10 448 3 972 6 1289 13 264 11 868
7349 2.9336547818558198 -25.687482500216372 67.029099955119904 10 0 0 0.43418606048296438 1 3339 9 3843
314 -1.7696931027941196 -4.3969523916172912 24.609658633552936 121 68 0 1.807769305654201 5 1976 10 623 12 1197 9 974
1302 -8.1145483888932173 1.6562032450510034 18.882741252701781 112 63 0 2.5343626424240515 5 4751 3 2835 2 2432
129 1.4970929321353605 -1.1810754502898975 17.04179467201498 87 94 75 0.39828115814754272 5 609 10 452 3 545 12 525 7 604 13 373 8 391 4 498 9 760
130 1.5499270229269759 -1.0652324016718782 16.961291189789101 20 26 14 0.59543220303079214 5 613 10 289 3 552 6 433 4 502 2 541 11 419
1207 2.0237026268070726 1.4582608006730793 17.887115957512219 201 190 155 0.40236982301965724 5 4272 3 2399 12 4231 6 5029 7 6140 13 5112 8 1932 4 4769 2 4519 1 4433
260 -6.2438069292791605 4.4694915923876195 15.289387850827385 150 99 20 0.67472655055971131 10 4143 3 4361
7440 21.107727169099142 -7.4051629775917656 28.724186650484285 158 118 56 0.03890247482171226 9 1501 11 2042
131 -9.7979716810125197 -1.4237819709870154 20.894202788089043 120 72 11 0.88624650144337747 5 616 10 472 3 333 12 270 7 461 9 235
132 3.1859211486665431 -0.99542328113602074 16.909549074947137 14 20 9 0.53632891495582158 5 618 10 453 12 533 6 1072 7 581 13 389 8 403 4 754 2 835 11 864
789 -0.81307549369028587 3.4286630415498061 17.053058281175815 161 107 19 0.66975464633663773 10 1326 3 635 2 824
2008 -5.7952715757139162 -10.626031626952445 28.87729908834595 3 2 0 0.9219780542319741 5 1293 12 1331 6 1951 7 1920 13 1422 8 3640 4 1246 2 617 9 592
1193 7.1870025894901195 1.4102205002349417 19.638619981453001 210 160 46 1.4442131191597674 5 2471 3 2365 8 5128 4 2342
133 3.3650985948232828 -0.95678829903568163 16.89469135237675 16 19 6 0.66459173007356243 5 621 10 455 3 979 12 536 6 1073 7 587 13 393 8 406 4 755 2 832 9 331 11 865
134 -8.8819575724892115 2.1886432367921915 17.620505032277112 138 91 13 0.93958573721880845 5 622 10 321 12 363 13 403 9 199 11 358
312 3.902194378544809 -0.20374397579522002 17.911687115615589 187 169 117 0.3286956064246368 5 1780 10 4835 3 1028 12 2358 4 2720 2 2158 1 4535
3034 5.9223597553268004 1.8571795183142268 19.323877481253323 201 148 36 1.612741255235234 12 1628 6 2644
3243 1.3224247451737097 -2.1805579580775629 17.92127477299373 11 13 2 2.6503524653765682 12 4050 6 4347 13 4356 1 4819
136 1.9055717570525184 -0.91362186732872031 16.836901101125815 24 30 18 0.68682778619367235 5 624 10 461 3 557 12 532 6 435 8 402 4 504
793 7.2150992749897362 -1.4900577988269448 22.249842324562 216 166 55 0.73670200355767002 10 1120 3 643 12 766 8 1014 4 1103 9 970
258 -6.648946056535368 5.1598813618204789 15.115821219542187 120 79 17 1.6556009552662829 5 1483 10 1416 3 824 12 1496 6 851
3261 -7.387514755274144 -3.4994968901966739 23.416331330905088 103 54 0 1.4498034551445982 10 5198 6 4462 2 3056 1 2178 11 4792
1310 14.412893814728474 -10.765808372080929 29.070396248013253 247 236 194 1.8639371722886595 10 2919 3 3179 12 3030 6 3699 8 2684 2 3750 9 3684
137 2.7152240075751384 -0.8486933263818851 16.814553980125332 70 74 59 0.34911100955125546 5 629 10 460 3 558 12 539 6 437 7 588 13 392 4 503 2 540 1 495 9 630 11 857
1819 12.7498847390096 4.2168735364578636 17.755873312265784 255 223 126 1.0991247709848686 10 928 12 348 7 151
138 -8.0055453694652137 1.9129525462912593 17.950895561272933 135 85 14 1.255087583069177 5 645 12 557 6 481 4 344 11 466
1215 5.5161508186768318 1.9847794136897348 19.090382018058282 206 152 43 1.0754055512818006 10 2692 3 2417 4 2379 2 4513
268 3.6035323021195755 3.5791522988267546 17.355064583661605 157 100 0 0.78539374762028147 5 1575 10 2406 12 1549 4 4045 11 2730
3352 -2.8747610573331186 1.9304681435625477 18.380777661135593 85 51 13 0.63909935305312715 3 2470 6 5248 2 4680 1 2574 9 2429
140 3.6553467913962674 0.19051784867581709 18.095758260708987 166 148 73 0.78717615060026591 5 651 10 1012 3 584 12 577 6 264 7 249 13 415 8 222 4 781 2 794 1 897 9 3245 11 2586
797 0.6321311680403231 -0.55314035815021378 17.282943831736393 2 1 0 1.5242391485005418 5 695 3 655 4 1038 2 554 9 1112 11 425 11 1089
1201 2.3604773114309952 1.3222256653046862 18.166198709728 22 13 0 0.23808826002553912 5 4800 3 2384 6 1134 8 1161
262 -8.6385737218638443 4.02285555718389 16.168270512181991 78 37 0 0.74239794194423592 5 1548 10 852 12 1368 13 1066 4 849
141 2.4390257256298367 0.3920374912135498 17.031978326813725 168 141 72 0.58086193740305758 5 654 10 998 3 591 12 801 6 265 7 250 13 416 8 223
3346 -7.4585149424424095 3.1276686177307158 16.943226515655184 129 80 12 0.65997285279878692 6 5211 8 1999
142 1.1387627477332387 0.43212107871680283 17.202582176787072 21 14 0 0.92881397790171838 5 655 10 481 3 250 6 459 4 345 8 3220 2 152 1 161 9 241 11 232
256 3.4960005027363401 5.7407151724984855 15.346598906618361 164 110 7 1.5590393862527006 5 1459 10 4576 8 2568
1308 15.727401345710701 -8.6385383661018018 23.649444936179496 191 195 170 1.3154250605529043 10 2935 3 2929 4 3100 2 3626 1 2661
143 2.1422618947676986 0.59019573088568866 16.969040163100733 45 30 11 1.3941188402691762 5 656 10 997 12 1673 6 267 7 252 8 221 4 1002 2 1063
865 2.7373180956561365 -1.5386623832692228 17.4227879521742 6 14 3 0.91626997351705008 10 434 3 964 4 516 2 526 2 845 1 481 9 782 11 874
266 2.894816766339023 3.6346665605470161 17.237521519467382 186 128 29 0.61497926446348827 5 1570 10 2414 3 1548 12 2625 9 4725 11 2744
1382 -10.72652641164553 -6.5460794098300887 23.92446053707625 123 126 112 0.58467475908726829 5 3681 3 3616 7 4447 8 2748
145 0.89633440135562703 -1.9385799208131604 17.773080878616518 15 17 4 1.0538193325509977 5 660 10 661 3 959 12 520 7 467 13 590 8 1723 7 672
146 3.0391221982904879 -1.9386604690445999 17.818301676370975 11 17 6 0.56465350378430346 5 661 10 649 3 951 12 746 6 1047 7 679 8 760 4 727 2 629 1 744 9 803 11 887
1159 1.9935048447843935 0.066061489901142634 16.194146461745934 199 185 141 0.11598285357442591 5 2347 3 2243 6 1226 7 1046 8 1078 2 2184
276 1.0412377697783988 -2.3678602869053891 18.06968604015124 115 117 104 0.38142249773518827 5 1623 10 1068 12 1126 6 4306 7 5064 13 1646 4 2058 2 1330 1 1216 9 2137 11 2424
147 2.6503190694169914 -1.8100060788192407 17.68244873684181 19 25 12 0.52280587508523313 5 662 10 658 3 957 12 749 6 1052 7 684 13 686 2 581 1 946 9 826 11 1730
148 3.1445947512498971 -1.8062408553088085 17.700766652897144 14 20 8 0.23220627922647807 5 663 10 654 3 953 6 1053 4 731 2 610 1 751 9 798 11 883
869 -10.762255609304564 -3.97986610169818 23.20646339956479 127 83 20 0.5320351799999139 5 994 10 409 3 973 12 468 6 1042 7 439 13 694 8 726 9 354
1209 -9.0995490942993964 0.31511661624672049 19.375724340978774 108 58 0 1.814966695086744 3 2404 4 1604 12 2311 9 2465
270 3.2522760939961799 -0.25428069547938381 17.126866591787223 42 26 0 0.22770528540312696 5 1579 10 4825 3 1038 6 683 13 1823
7450 -0.96792819893986615 -9.7533436853890816 28.81946817744296 107 71 31 1.9748741793731934 1 963 11 2263
149 3.5382767716548962 -1.7153392243336016 17.767706569905943 8 12 2 1.3474501705638464 5 664 10 659 3 958 13 983 12 752 4 734 2 603 1 752 9 797 11 884
150 1.5424763094268177 -1.753191836351448 17.867857948988171 101 109 87 1.5040945215903125 5 665 10 664
264 2.5304481887556105 3.8496633144901953 17.112357056980716 182 123 27 1.3110794967464736 5 1559 10 2430 12 1540 6 1743 4 2496
3259 -3.6750531417269143 -3.303396616147277 22.063454150070921 0 0 0 0.85400417072771329 10 5309 12 5658
1380 1.0801200936719042 -6.3229547155660049 26.376541719506346 166 114 31 0.94659084110999481 5 3773 10 1774 3 3606 12 1857 6 4077 7 2174 13 2836 8 3951 4 1938 1 3543 9 1952 11 2333 6 2063
151 1.2775713329067999 -1.6688657948117118 17.45944543682263 20 26 14 0.31408988796838805 5 667 10 669 3 965 4 742 2 841 1 774 11 859
152 0.94920737940197031 -1.621113858745185 17.431838753698251 18 22 8 0.56812102786905705 5 669 10 439 3 968 12 750 6 1300 7 682 13 601 8 1736 4 744 2 839 1 493 9 335 11 413
873 1.0362479957629684 -1.1436629190266121 16.97281304076305 26 28 15 0.38542299623867382 10 684 3 980 12 768 6 1284 7 694 13 981 8 775 4 759
3213 -6.3973316467865837 -5.2917909385917481 25.136482664631544 110 64 0 1.3576097671472731 5 1933 10 2499 6 4188 8 3986
1390 -5.3887088946567427 -6.5553918693257911 26.211393772804776 93 47 0 1.5182217768220774 10 3512 3 3638 8 3883
153 1.9619333660457736 -1.3666164389226139 17.242198605131126 21 25 12 0.2246731309185615 5 673 10 1083 7 689 13 1717 9 1060
1899 1.0069440660280828 -2.0430790605060181 17.817866641641043 17 23 11 0.73794039587339266 5 1017 12 738 7 669 13 736 2 875 1 1514 9 2174 11 1002 11 2455
154 1.3745394524046033 -1.3284488427560401 17.180301252803577 120 126 112 0.51588071230986177 5 674 10 676 12 758 7 687 13 984 8 1751 4 750 9 761 11 855
1167 -8.6241920179753784 -1.4204671539978333 20.954560137597479 134 87 15 1.3689628756811185 10 4843 3 2281 4 4279
284 2.6662299008660479 1.5928640031973293 18.835144713593557 183 154 94 0.65983816004358331 5 1672 10 4441 3 1629 6 1708 7 761 13 922 8 959
155 1.8277833824451049 -1.3341319104345917 17.329163471059676 20 27 9 2.0460788549438473 5 675 10 673 12 761 8 773 3 996 4 748 2 950 9 1065
3432 10.476699196819434 -1.5788808038318185 22.65645942440344 221 169 52 0.82400655336651496 5 5557 6 5905 10 5187 4 5154
877 6.0001407033964567 -0.53644806456629024 21.259980354316401 183 130 26 0.32989868856855686 5 699 6 687 4 765 2 810
1153 -9.2410367073081314 -2.0908830648862411 21.282970143536939 99 51 0 1.4412448767110748 5 2104 3 2227 4 2298
278 1.8525478943137557 -2.6841698603855271 18.430180078722806 153 159 138 0.2465340818991133 5 1643 10 1953 3 1966 6 2109 4 2036 2 1960 1 1920 9 2078 11 2381
157 -0.18615747281921866 -1.1928502206989195 18.394335666200643 8 2 0 1.5844192824669967 5 680 10 685 12 5446 6 1078 8 1776 1 502 11 837
3426 9.2829482935300458 -1.1169351308851077 22.173443755288364 180 124 13 1.5808376861504074 3 5411 13 1935 8 4770 7 3628
158 3.0157562034819798 -1.0414848797643048 16.981941407597713 5 11 0 0.33643702238260459 5 682 10 682 3 977 12 531 6 1071 7 579 13 382 4 752 9 770 11 863
7299 5.8327154280746232 -4.6026208132368387 25.044767154983489 164 109 9 0.60304595005745587 8 4161 9 5407
272 -1.7362334178816377 2.9782449373733413 17.418777964154103 128 82 13 0.45477700092490669 5 1595 10 2410 6 1787 7 1210 13 1082
1388 -7.7576706815136847 -6.9063116256315604 26.271735592967215 43 15 0 1.5697629175945098 10 1214 3 3630 7 4522 9 965 11 2449
159 2.8887012624868906 -0.92803610544116477 16.918147897063953 5 11 3 0.48018705413784507 5 687 10 686 12 774 6 1075 7 702 13 967 8 1030 9 763
160 3.0486081247201087 -0.87482758197604715 16.862519703596107 9 12 2 0.47572325713367275 5 688 10 687 3 982 12 540 6 1076 7 590 13 395 4 758 2 826 1 781 9 765 11 858
817 3.503827059339502 2.9422102276295949 18.135981896062923 194 140 32 1.3693118939753166 5 768 3 732 2 755
1334 -12.273694802947649 -9.5754233660414361 25.587297327532927 93 96 77 0.5428097929411233 5 3430 10 3150 3 3385 12 3110 6 3744 7 6187 13 3331
1843 -11.891651238206366 -4.6570619620892 23.746688592555056 100 56 0 1.2797162145583485 5 991 12 461 6 1034 7 435 8 3972 13 6032
162 0.1650116802311325 -0.60618906453877908 18.131848746496605 38 25 8 0.6995753857196364 5 694 10 471 3 217 6 447 7 2543 4 352 2 149 1 158 9 245 11 257
3549 -10.914412286189185 -14.441617706689541 31.929072546561407 117 98 131 0.59357544804188189 5 1353 6 1848 3 1271 10 1346 4 1304 2 1322
1111 -0.21970430647610953 -1.7868624495543064 17.838906347762489 181 135 53 0.59375826974045909 5 5685 3 2074 11 3466
292 2.3064202755658867 1.1874259632349971 17.86058297559229 36 22 0 0.3913621973494304 5 1701 10 4421 12 2455 6 717 7 745 13 1897 8 971 2 2298 1 4404
3014 3.3966601015107356 0.47827557519569197 18.215601523279947 15 2 0 0.33625963389285074 3 5095 6 2495 7 2718
7472 -2.5493518178183385 3.916995559233917 17.525012908846548 0 0 0 2.640254463907187 4 1519 5 2665
2002 2.0854754349572082 -0.1262112492517613 16.235344209611885 56 66 49 1.8462429761585586 5 1485 12 1301 6 1240
163 6.3816649353464268 -0.31539053330372568 21.10597745649207 190 136 30 0.57932348304958381 10 480 3 662
1495 5.5432521913461823 5.4979960340977225 15.729750859402447 221 178 75 1.2094589372834781 12 4394 6 2961 8 1434 2 4949
164 3.8565927971025689 -0.15390510909507679 17.955650725642673 178 154 92 0.41932054690367865 5 705 10 2205 3 658 6 452 7 603 13 953 8 226 4 1041 2 892 1 1448 11 1765
165 5.5445534626101507 0.054292248515129024 20.733295918590549 174 120 14 1.0287325705493153 5 719 10 696 12 793 6 1183 4 1033
980 -0.64764713980885946 3.381074246963069 16.865306190800787 158 103 12 1.8145227738723706 5 2642 3 1539 6 4497
1489 3.2545355852496867 -1.0878645104170008 17.061046195700996 147 155 142 0.21503555233006003 10 2135 4 2166 2 2059
166 6.1007093312361214 0.38768735597765813 20.47804377856475 170 113 6 0.41692507127174172 5 726 10 701 3 675 12 797 6 707 7 616 13 939 8 432 4 956 2 862 1 1420
3895 -6.554573618264536 -4.7062998351732706 24.297674315706441 141 93 19 0.9877353903847661 5 1956 7 2198 4 2044
1332 -12.022722735339839 -9.552887563555192 25.591110690565408 106 99 91 0.39466570949827651 5 3433 3 3383 12 2952 6 3745 13 3337
167 -9.3989875753307057 0.56206553143986815 19.262364050397405 133 85 13 0.27457641671472011 10 726 12 780 8 1009
4054 8.6032365743062957 -1.7230890146472124 22.758945300974641 176 119 6 0.058062281286157549 12 5451 7 3533
168 -6.912404972235362 0.9840772720458788 19.056492336866391 106 57 0 1.9889828318716256 10 968 13 1755 8 1087
825 1.5962641038081298 4.8658514992005095 15.931697285916128 185 133 34 1.6011390773369774 10 1500 3 784 4 1506 2 681
3547 -3.56172863848143 -16.030458831690822 32.378819025952531 113 119 112 1.2308626967525618 3 2888 6 1546 8 1527 4 1357 2 1649 4 1622 1 1001 9 1690 11 2025
290 2.9507432454269518 1.3042925698317114 18.69393111879462 25 9 0 0.95771259578641399 5 1693 10 4317 13 1910
3165 -19.055123453681926 -10.59849168278126 31.108585929840451 93 99 87 1.1250251628327999 12 3136 6 3919
4044 13.268440770097325 -3.1390027565207554 24.023686463897022 230 178 56 0.47121137372125615 7 3406 13 3224
169 4.0235681312100535 1.1116547245883408 19.701177695634708 199 142 53 0.71450218887099604 5 734 10 4680 3 692 12 1658 6 719 7 405 13 1900 8 965 4 948 4 4689 1 1384
170 2.4218111833332783 1.3283224729535634 18.161972347013734 49 38 16 0.50703686208223941 5 737 10 2303 12 1643 6 469 7 492 13 927 4 992 2 772 1 1370
7118 -1.1696989842838323 3.6051914588546947 17.003625965965515 173 125 41 0.28258090033509203 1 1289 13 1124 10 2443 11 1214
1119 -8.8294602841035239 -3.7257318376996813 23.091420969794548 126 82 17 0.64871197557010163 10 1973 3 2096 4 2152 9 2312
300 3.0156610722383297 -0.40507684128130372 16.69708547631917 180 166 118 0.57032326753421458 5 1747 10 2197 3 1048 12 984 6 674 7 708 13 961 8 412 4 2254 2 2126 1 4580 9 3200
171 6.2426517004681843 1.678817231366929 19.470779852846011 202 148 42 1.1410400285950086 5 741 10 717 3 696 12 820 6 734 8 446
3384 5.4134774251451976 3.140513698712704 17.846432622604997 205 151 50 1.2365617762171313 5 5004 6 5459 13 5436
1503 -0.848824305098555 5.1396121106388692 15.762818106648206 183 128 37 1.2253637568024176 5 4437 3 4353 11 5564
172 3.7559501820727257 1.9980831367201715 18.833741630371961 198 146 37 2.0121208632805483 5 747 10 970 9 1145
829 -1.1678820811271 5.139919489339392 15.903160616024858 148 93 6 1.8925992367052249 10 1479 3 803 4 874
1984 -1.0180781992315595 -5.9256110789516931 25.878604799995045 144 96 14 1.6009534854175305 5 1908 12 1225 10 1801 7 2179 6 2068 8 3978 4 1961 11 1903
1105 0.33220103783697119 -2.1112933951808888 17.791856229870323 8 2 0 0.32595908434570758 5 2057 3 2038 12 1115 6 4357 8 4173 4 1120 2 2022
294 -6.6557821778169579 -4.4180930941544911 24.101901723205838 139 90 16 0.21245992617390952 5 1709 10 1179
173 6.1280573054314988 2.1799694477304468 18.7950286931348 203 147 39 0.66814040237298666 5 753 10 974 3 1622 6 750 2 770
988 0.27037938934915473 2.8143492162376305 17.660215593584233 161 109 23 1.4835533079380845 5 1601 10 2382 3 1569 12 1595 13 1087 7 1215 4 4015 2 2397
1497 -2.0564660691512358 4.6877747013697908 15.488127236427493 143 88 0 1.4361479810057816 5 4375 3 4306 6 4716
174 1.5616756519303587 2.2796427304374247 18.380848333445748 161 112 19 0.61817208119397604 5 757 10 950 7 501 4 2415 11 1165
288 2.772354724837184 1.4025781464338138 18.606817031764621 42 25 1 0.58810848761603307 5 1687 10 4431 3 1637 12 2468 6 723 13 1027 4 4744 2 2306
1340 14.65369331397936 -7.7591537047358639 28.216623206513688 5 6 0 2.1288671364818161 10 1264 3 3423 8 3936
176 4.3688728403693284 2.5528960469350341 18.313977213339673 189 135 27 0.51395361279031981 5 763 10 955 3 722 4 1162
769 1.9235330314280548 0.19491061411761887 16.269164824438874 161 144 87 0.78107646770343508 5 649 3 582 12 1682 6 258 7 315 13 411 8 230 2 793 11 3621
298 3.11405549558383 0.64715696232630193 18.075628789284178 187 170 116 0.51392969953916767 5 1733 10 2263 3 1676 12 1675 6 706 7 735 13 1870 8 531 4 2334 2 2245 1 2565
1286 -3.2104292283375817 5.9476726051650015 14.610220002168498 161 106 24 0.33437532794745178 5 4601 3 2751 6 4987 8 5800
177 -2.6808648037987775 2.5967641548743279 17.748916615474485 127 88 23 0.50949205278131504 5 764 10 739 3 737 6 766 7 768 13 919 8 943 2 371 1 536 9 628
1795 1.9246741885859413 -1.0358006928201917 16.908489284122087 31 37 23 0.68321677745004705 5 383 12 240 6 239 8 255
178 -3.6303222617590123 2.9024598708938498 17.41127102848062 93 46 0 1.3939528121744229 5 766 10 902 12 2545 7 774 13 1050 8 934 4 1542 6 2742 9 1224
1191 3.2498550134851469 1.0644891748344389 18.746501541197041 192 183 137 0.53638106995872803 5 2448 3 2362 6 1153 7 1124 13 2024 2 4888 2 5075
308 2.6559961580933922 -0.061690582994089478 16.77083051332729 181 164 110 0.69976203488995981 5 1773 10 4786 3 1022 6 1227 7 1043 13 1943 8 1010 4 4801 2 3137
3030 7.0472680677076545 1.6165038059410426 19.219279840385468 206 152 43 1.7273438337961073 3 5602 6 2619 13 1088 8 1216 4 4683 2 4098
179 -1.8801771292708511 3.0147857810257106 17.437668456692137 117 72 4 0.63871160920472914 5 770 10 743 6 775 7 783 4 928 2 375 1 538 9 632 11 792
180 3.645019852035825 3.0411548886524264 17.913608378410341 193 136 31 0.74575466555330494 5 772 10 733 8 456 4 817
773 -5.3637817370052474 -1.0699333012097139 21.18575259569106 0 0 0 0.69429467924914989 5 635 10 470
1992 -12.504982213736829 -5.7769609508706781 23.324461397833691 207 205 184 0.52537996621195926 5 1209 12 1257 6 1365 7 1612 13 1487 8 1653
1113 -5.6393614024368031 -3.6451956062825541 23.569317348676037 146 97 20 1.7532820591328098 5 4141 3 2078 12 1980 6 4425 4 2116 2 2105 9 3161 11 2605
302 2.2952382631283013 0.22076136636007607 16.70341494374631 175 153 94 0.44208385431018826 5 1755 10 2255 12 1683 6 691 7 718 13 1844 8 418 4 2314 2 1037 1 2169
7482 9.4776699047631077 -12.747223266878786 31.378003364036623 17 9 1 2.3083566349577507 3 888 4 1707 11 2989
181 -2.9131484491187756 3.049584696039366 17.328868767409777 139 94 19 0.60400767389799237 5 774 10 1405 3 749 6 779 7 780 13 1073 8 926 4 917 2 716 1 371 9 1220 11 1225
182 3.0332382971620362 3.0905846488069857 17.789773964350768 169 112 8 0.50083774761386224 5 776 10 926 12 846 6 780 2 887 1 1340 9 1166 11 1167
3847 2.4057283419309075 -10.364869200443525 29.418539874043628 17 4 0 0.81591012499610349 7 1861 1 1743 2 1829 9 4050
296 2.6695213816612839 0.83201342117873101 17.818316974109379 185 161 109 0.53204865121296907 5 1720 10 3898 6 710 7 737 13 1882 8 981 4 2732 1 4142
3018 10.690210014783206 0.58768002343894787 20.530112502423098 227 174 61 1.0032142584421342 5 5232 6 2530 8 1953 13 1070
3163 -12.447758249441183 -7.4730707362819118 23.952964559242215 59 69 59 0.35846973565248264 12 3035 6 3910 7 1943
1284 3.114816877508527 6.6317403236333705 14.89237670826726 156 104 5 1.2105356023726728 10 2582 3 2745 11 2892
183 3.7920609542524435 3.1614024772173486 18.056298033181033 198 144 36 0.019621505610743363 5 777 10 734
777 7.2788353519508115 1.060478387152159 19.907706475356591 188 137 22 1.2349139617111164 5 467 3 599 12 366
306 5.9951935046677169 -0.21499973086095348 21.04003507099242 192 135 28 0.19992008566505906 5 1770 10 1045 3 1414
3245 15.297361496044728 -3.7683555816330485 25.064503496236664 239 190 69 1.7078308742554018 12 4128 6 4364
4060 3.889744586238125 -0.12401647046577295 18.026748493139163 183 153 107 0.23779355431073115 5 5351 7 3654 13 4915 8 4745
1294 4.5797376989225782 3.19013026739501 17.671097891999452 205 153 44 0.88249876789204329 10 2361 3 2797 6 1780
185 -0.043079419069528453 3.3252670877176564 17.289552078794692 168 111 21 0.56184061010231612 5 783 10 746 3 747
1803 14.874162595544236 -11.347745053466223 28.851423391854837 36 11 4 1.8130846842054169 5 142 6 225 3 193 7 179 8 195 4 368 1 277 11 528
186 -2.6334319373560642 3.5597079683370878 16.825538512607455 143 92 13 1.7955397110208284 5 790 10 1527 3 756 12 1569 4 1529
1199 -3.6514494444520356 0.4848140480817576 19.739691086930137 84 43 0 0.88983901621436523 10 2290 3 2377 4 2381
316 -0.32112407744511212 -3.8800439856108708 23.789275618265826 136 79 0 1.4264507773478832 5 1994 10 1900 1 1214
187 -5.4290448955606339 3.7679314791951626 16.521896939313326 145 95 22 1.2343894730816836 5 791 10 610 3 466 7 512 13 907 8 454 4 558 2 303
3336 10.400646677221493 1.6818420837335826 19.627687715083002 225 176 59 1.0043248164233853 12 2518 6 5166 7 1221 13 2191 8 1240
188 4.895748738388952 4.8515926366951714 16.164523119236531 194 137 31 1.7725732032263259 5 817 10 1515 3 772 6 829 12 914 7 854 8 493
781 -8.1853839302907687 0.54553322628956613 19.282815143765276 106 58 0 1.5396595778074631 5 243 10 495 3 615 12 547 6 273 1 306 11 370 9 381
2000 -11.259549323691182 -7.2986027369782649 23.799238578418777 1 2 0 0.38598276141521204 5 959 12 1293 6 1389 7 980
1185 3.3523766788437293 0.78798842294645932 18.526930913794228 182 173 114 1.0292091386308171 5 1724 3 2343 6 2541 7 1477 13 2565 8 1879 1 4314
310 5.4772314494903656 -0.28677831819944283 20.809279820917087 194 137 30 0.31646774448096615 5 1777 10 1047
189 -3.4130863630461756 4.8622347891778972 15.562744040815108 130 78 0 1.5963005370397514 5 818 10 1472 2 721
3330 6.2929205288334025 2.2874327250459658 18.722592669867876 205 151 41 1.7338162030365829 12 4742 6 5122 13 2181
190 -6.385316199398309 5.2029846775067217 14.978512964051209 125 86 18 1.0072692126951375 5 837 10 1409 3 826 12 2699 6 3095
7331 2.797744648556181 4.0160735290706038 17.095395970402645 134 92 20 1.9105455279460526 4 1548 9 1186 3 4067 5 1553 6 2846 7 3040 13 2309 11 5045 10 3877
7122 -9.0164608246891849 1.6300819225620096 18.371262584199965 111 67 0 1.8811746524975614 13 4751 9 2542
304 3.4612404502500418 0.12119076314229264 17.86818200626487 180 164 120 0.51227297312700071 5 1758 10 2235 3 1706 12 2382 6 1202 7 1073 13 2562 8 1872 4 2299 2 2190 1 2151 11 3555 9 3256
1292 2.9291112139078783 -0.8226502528854388 16.793133112018921 117 123 109 0.3324180825373399 5 1081 3 2789 13 1778 2 962 1 2034 11 2491
191 -6.0162223437243094 5.2188688081541601 15.05484769412789 125 74 1 0.86540770865781569 5 838 10 804 3 502 12 598 6 539 13 865
1574 2.4101393481783684 0.6579381226309623 17.446112054979238 189 173 124 1.7848248748747906 5 5223 3 5066 6 5567 6 5584 7 3774 8 4849
192 -3.6450439889688284 5.4071747004927895 15.200068756120178 158 102 17 0.24779162441723024 10 813 3 821 4 839
849 -10.641840358671029 -8.3009861763021444 24.600908594841584 66 74 61 0.44299537292207269 5 948 10 594 3 918 12 1319 6 644 7 926 13 633 4 450
7413 -6.8864841209323417 2.9690788255430745 16.951703943488841 124 80 7 0.76277545839561434 4 1517 11 1288
378 3.7275964579178598 0.11450593080704478 18.132004373962967 17 3 0 0.22786644342332155 5 2363 10 4791 3 2264 12 5168 6 2459 7 2685 8 3231 4 4794 2 2189
1366 16.910627769858181 -5.1158071671536627 26.301374565417301 242 195 87 0.61312294014159918 5 1953 10 1758 3 3563 4 3545 2 5214
193 -2.081750653906008 5.7723462018478502 14.976320201664953 169 115 28 0.93335838070954891 5 864 10 805 3 406
2599 1.5927446658088271 -1.3168667000672067 17.160141267743455 160 167 151 0.2276237591714656 5 5611 12 5445 13 4577 2 2896 1 4681 9 3128 11 3420
1271 -5.2991748595275752 4.6600697816838688 15.816714712702224 130 81 3 1.7683339951477179 10 4126 3 2676 12 2664
7504 -0.21004766205736286 -2.0447778245311792 22.740158156161254 131 79 0 0.76613481579490805 2 2144 11 3539
195 2.3855482572570441 6.1999932886933644 14.855586189286745 179 125 26 0.57189177840178385 10 812 6 550
196 -5.2412715386853277 4.9780805056216835 15.415591151770228 155 103 20 0.75113286804675505 5 888 10 820 3 493 12 933 6 525 7 525 13 872 8 876 4 844 2 429 9 623
382 2.3988155740250483 0.99018977771511618 17.701783335275593 178 160 114 0.47984813306346258 5 2443 10 3975 3 2354 12 2448 6 2551 7 2757 13 5038 8 1880 4 4700 2 2273 1 2233 11 4819 9 3380
197 2.3279658277624948 -2.6272723101626436 18.406150318598886 15 22 6 0.82301136884955928 5 1004 10 631 3 1968 12 723 6 1351 7 1005 13 725 8 1704 4 1168 2 1546 1 1916 9 605 11 1699
198 1.6102556364800962 -2.5502473786252664 18.295805208714796 18 19 3 0.6421399082391005 5 1006 10 635 12 501 7 655 4 717 9 809 11 1711
2596 -4.4577947279205397 -0.64637108572615165 20.38703379528204 140 92 20 2.1598554769661269 5 2279 12 5430 1 4451
3927 11.836241169187982 -3.6318310250285304 23.952146975845846 228 174 50 1.530511747701051 12 2062 7 2414 13 1690
376 3.2090608931814466 0.034035861210151362 17.436350932409074 189 172 122 0.33826700947689686 5 2353 10 4787 3 1656 12 2895 6 1210 13 2206 8 1860 4 2290 2 1334 1 2143 9 3255 11 2580
3307 3.9157880369286389 5.0894477977200392 15.996007524418781 166 112 6 0.30357365865203967 12 4320 6 4795
1573 7.1277936748859236 0.8747861410754445 20.287629704997741 181 128 14 1.2090991915840601 10 4770 3 5065 7 2808 8 1942 1 4131
1364 -5.7109722149889972 -7.6699051102568436 27.16679114561094 113 71 13 1.4839351166913919 3 3552 12 3400 6 2034 13 1491 8 3816
199 2.1293486175839922 -2.559831201440578 18.327790373125673 20 27 10 0.27814081503103677 5 1007 10 887 3 1136 12 724 4 1164 2 1549 1 1563 9 981
1582 0.85167938175662994 3.2936471472142479 17.348028482494993 180 122 23 1.8741516086631886 5 5038 3 5105 2 4762
200 4.4378177209985301 -3.4336543154390391 23.503779152638042 153 95 2 0.83710410444621086 5 1008 10 626
857 4.0370588319294445 -5.9812909366558209 26.34549918117489 146 93 1 1.8103858851166257 5 984 10 392 3 929 6 1019 8 725 2 858 1 1308
322 1.4255971756969603 -2.5606912943451503 18.285530984839887 136 142 116 0.26534157421144483 5 2028 10 1969 3 1983 12 2072 6 2117 7 2319 13 3067 8 4123 4 2043 2 1978 1 1926 9 2100 11 3263
3325 -7.9583061436716651 0.9390625492817769 18.522838805879431 99 51 0 1.6761342366577217 6 5088 2 2387
1374 7.3452485959450851 -5.8956072308925869 26.499959333102371 174 121 27 1.0701242433217364 5 3840 3 3584 9 4318 11 4609
202 0.76000831873939423 -2.1993434497375568 17.913960523611557 94 99 84 0.26955886770495263 5 1013 10 885 3 1115 12 731 7 662 13 727 4 1127 2 913 1 1518 9 1038 11 996
2600 7.74865448696585 3.9822166768366301 17.173931592281825 191 141 20 0.89232942302499407 5 2669 12 5449 13 2371 8 1364
1279 -2.1934750964623664 5.5259023621192238 15.029456089959876 160 104 20 2.1891866339367194 5 2797 3 2725 12 2736 4 2645 2 2605 9 1614 6 2967
332 3.1654055692246921 -2.0259735698073289 17.92190102666094 7 13 2 0.42917638714529849 5 2066 10 1133 3 2014 12 1093 6 2154 7 1458 13 1685 8 2926 4 2061 2 1989 9 998 11 2386
203 3.0636190607414737 -2.1440614092558605 18.040172456420521 6 15 6 0.35997469501925428 5 1014 10 642 3 942 12 740 6 1112 7 674 13 813 8 1725 4 721 2 644 1 737 9 813 11 891
3416 6.3446704811763679 -0.50420384255221784 21.068818712501546 208 151 44 0.95850096601151846 10 4954 6 5723
3625 -0.085881874184308107 5.9917193627948402 14.237819433298961 166 104 14 0.32170264251650693 12 877 8 850
861 1.3911453064162516 -2.4466559247052961 18.165526848855425 25 34 16 0.37476007738281336 10 640 3 939 4 719 2 645 1 745 9 799 11 881
3618 1.5322647068079032 5.424310917339632 15.110764177336076 169 110 18 2.1499968580752644 12 177 6 105 8 113
1265 -4.3401145613501066 4.4129693795740028 15.979309231606063 163 114 38 0.66785367436808207 10 2500 3 2640 6 1718 7 2990 13 2203 8 2156 4 2580 2 1254 1 1229 9 2606 11 1312
326 0.71621779621867454 -2.3043161216607175 18.031931160634922 7 10 1 0.90888361496379133 5 2046 10 644 6 4318 8 2885 4 1136 2 906
205 0.76829730527989626 -2.0220376144966354 17.699244982032361 24 31 16 0.93315498027543375 5 1016 10 655 6 1043 7 464 13 585 4 1117 3 1107 2 923 1 1507 9 1048 11 1012
2595 7.2659385574891795 -1.4904161212417446 22.221083040290079 225 172 60 1.0631784836185991 10 5114 12 5426 6 5883 7 3539 13 3275 8 3139 11 3245
3410 1.9669858137734946 0.36767543989540968 16.542430193879419 196 180 131 0.17723641355795552 3 5141 6 5665 8 4771
320 4.0807940037628532 -3.6864750443702525 24.032878595597101 189 132 34 1.0153755189735183 5 2016 10 1884 12 2032 7 2336 8 2933 9 1542
1581 -7.5714513208874283 -1.0501712655961617 20.339868184868017 113 64 0 2.2199980246306987 10 4799 3 5104 8 4445 9 4652 12 5543
1372 1.2224024360018091 -6.5571629632411206 26.486435275093381 153 102 21 1.4204372533656764 10 3409 3 3577 13 3797 8 3925 9 4430
207 0.66930657005290617 -0.81065209456489673 16.845404337063361 45 32 13 0.22877511055813327 5 1022 10 1032
1590 7.9367342553760514 0.35573853436901787 20.783493146118367 217 163 54 1.9378405383851536 10 4848 3 5146 4 5386
208 -2.9592194637920914 3.4632516685519414 16.929181097224326 102 48 0 0.67348805207135964 5 1047 10 1087 3 753 6 1764 7 1229 13 2141 12 2590 8 1496 4 1533 2 1207 1 818 9 1244 11 1250
929 -5.525895376094593 -8.7087998845296219 26.923069366340318 5 5 0 1.2993708893258431 10 3238 12 3272 3 1175
330 0.36940059694051469 -2.041468681702054 17.748601885532899 112 117 97 0.4530837450727439 5 2060 10 2052 3 2041 12 1112 6 1318 6 4370 7 1727 13 3091 8 2900 4 2098 2 2027 1 1987 9 2192 11 3396
209 -6.0861144048577396 2.4415740317068133 17.850501301232676 109 60 0 1.1722691989055949 5 1050 10 740 4 946
2615 -5.7916034302739092 -1.2053101445731362 21.259173275814344 104 55 0 1.4478839792963365 5 5512 12 5540 7 2423 8 4501 2 4089
1955 -8.9531016492028197 -0.26122093822501741 19.665629855880933 127 79 17 1.1637673893671956 3 1655 12 1046 11 1190 4 983
210 2.2273813869856278 0.17796201211114984 16.628606829169712 49 33 16 1.0841178264888665 5 1057 10 2253 3 1012 6 688 7 607 13 949 4 2312 2 1336
1223 1.724759947021731 1.8626405026676307 18.015179786036796 29 12 2 0.58248697249948223 5 2518 3 2433 12 4644 6 1844 8 5101 6 5220 2 4570
340 2.5456051783384819 -1.6324459385584815 17.490690530418405 1 7 0 0.14338569967503745 5 2100 10 2084 4 2111
211 3.8127358999275578 -0.48279387883035957 17.460101621121769 44 30 3 0.30400900259681729 5 1059 10 4882 3 1047 6 676
212 -10.900558013053384 -0.83093701915483575 20.745086110919321 125 76 10 1.3422020794509977 5 1065 10 1001
933 -1.3910208393039503 -9.9128507375763864 29.554790393276278 34 9 0 0.39888988146035231 10 580 3 1187 12 645 6 1410 8 691 4 682 2 1514 9 585 11 914
1273 -7.7743557136428167 4.5858292919276202 15.641168120711848 69 28 0 2.0121733239012829 5 2715 3 2689 2 1314
334 0.47470719552646307 -1.926644572453265 17.630727384967006 148 155 137 0.23707275230564676 5 2074 10 2071 3 2051 12 2143 6 2168 7 1734 4 2114 1 1996 9 2196
7514 13.918914609947576 -12.554291857150362 28.014450617510771 120 55 2 1.5449927710285827 5 2997 8 3486 11 3845
6699 8.2903276612388002 -14.355576713099088 31.823828241647039 0 3 0 2.6009415146718426 13 2593 1 1600
213 1.4408271942047728 -0.59525627468451292 16.540052199636371 16 20 8 1.1196597976301179 5 1069 10 1021 3 1051 12 1000 6 1268 7 1814 13 1774 8 1788 4 1056 2 871 1 1450 9 1101 11 1065 2 989
214 -0.085550080889751287 -0.84450318135323921 18.537072498325482 9 1 0 1.1563641203837542 5 1077 10 1035 3 653 12 2265 2 804 1 894 11 800
4007 8.0951885233517853 3.2686731449527042 17.905315435312168 192 137 18 0.36348038173673086 6 5487 7 3032 8 2184
328 1.1009439731431543 -2.1476487801681996 17.889137870918198 4 7 0 0.72827327662361219 5 2053 10 2017 3 2027 10 2022 12 1294 6 2148 13 1655 2 1720 11 3342
3323 -3.9801595243072341 1.4501935039439375 18.185033492857134 111 71 12 1.7007358148853484 6 5036 4 3932 1 1327
1589 -9.8906310453303767 -1.4763169085016099 20.737349974492574 88 42 0 1.049398486079675 10 4820 3 5143 9 2404
1444 0.86927818832090342 -1.4106981488549326 17.198289682389834 125 131 117 0.19955985330460724 10 4990 3 3916 4 5009 2 2905
215 2.6859150027558112 -0.71332154782122381 16.670570221078972 123 131 108 0.4650437026346807 5 1078 10 1039 3 1065 12 964 6 1270 7 1818 13 1786 8 1080 4 1069 2 967 1 2063 9 2246
1598 -3.9920691858855619 -1.1103332773921204 21.093412037450186 118 68 0 0.36136285516949929 5 5493 3 5186
216 -5.7973552421943317 -1.3292483403000217 21.278309427036998 150 100 27 1.0831208467057589 5 1083 10 868 3 1704 4 783 9 732 6 677 11 1152
937 -0.19792935360527109 -10.039574615170789 29.642582117642824 105 73 26 1.5231971485222466 5 1784 3 1202 12 3250 6 1420 2 1868 1 4995 11 5528
1571 -4.3451142978487489 -0.22130505952815244 20.117575022331533 105 56 0 1.6442230406447738 5 5362 3 5053 9 2382
338 3.7574000407981272 -1.7296718019940016 17.660640293291767 18 2 0 0.5450533338794501 5 2095 10 2047 12 1073 2 2727 9 2954
3277 -5.9173874352879121 3.9766433762940201 16.535471375115002 150 98 23 1.8203720266443835 3 4209 6 4605
1454 3.5037961943678964 -1.2746040080422427 17.255817645822315 249 254 246 0.32635841766591006 5 5601 10 5020 3 3985 12 5403 4 5046 2 2826 1 4784 9 2161 11 2430
1963 0.83395555037350377 -2.0225771196031466 17.720130208738926 8 13 4 0.60404192404493207 5 2064 10 1112 12 1108 1 1509 9 1046 11 1009
218 1.7164222340419115 -0.97632894853089625 16.887043861146473 11 15 2 0.8410066352580261 5 1086 10 689 3 1070 12 771 6 1274 8 1773 4 760 2 820
2616 3.118744240937763 -1.9193831771667604 17.797276769328747 137 141 127 0.18211498608381813 5 2078 10 2668 12 5546 6 4393
1231 -7.8746611738038261 1.589450816756548 18.087647953669254 115 66 0 0.78085401614264338 10 2358 3 2480 11 2879
348 -0.77809492702128513 -1.671906899875049 21.626018789983746 137 79 2 1.7193024793588583 5 2157 10 1089 3 2177 1 1416 2 2164 9 2706
557 2.4005460640377123 -0.38566130697498818 16.363466221532541 221 223 212 0.58218889381797456 5 5429 10 4816 12 5255 6 6241 7 3557 8 4609 2 3051 1 2104 9 3236 11 3515
219 3.9367073091531117 -1.0204068654324081 17.164309963868529 91 99 84 1.4537812194430544 5 1088 10 1072 3 1077 12 1016 6 1275 7 3250 13 1777 8 3047 4 1091 1 1506 9 1043 11 993
3496 6.3461428055727032 -15.652551976866944 34.765657471712757 5 2 0 1.6264323406523724 3 49 6 65 8 31 5 39 2 41 1 42
220 6.5713388885933126 -1.5629222543657209 22.420760020304378 196 143 34 0.56010580503803831 5 1089 3 2131 8 1819 6 2321
941 1.6828292382041599 -10.243393067793464 28.924605968357312 96 57 10 1.6379508846535087 5 1285 6 1959 8 5943 3 1236
1217 6.46966567982121 2.1243066681142686 18.210196530571057 211 160 42 2.5725976059092699 5 2539 3 2419 6 5262
342 2.9019302509391665 -1.4798202389613651 17.407899794420548 0 4 0 0.32459184525842211 5 2121 10 2097 3 2066 12 2218 6 2196 7 2462 13 3200 8 4349 4 2125 2 2033 1 1971 9 2160 11 2433
3623 2.6174515817098838 4.8149787040740577 16.129630953603666 154 94 1 1.2472276784931189 12 922 6 827 7 541 13 796 8 485 4 945
221 1.3861756820406619 -1.2300444010500884 17.061645586202456 20 27 11 0.59016878125742445 5 1100 10 1069 3 1076 12 764 6 1287 7 999 8 1757 4 1077 9 1080 11 1032 1 2053
2611 5.5626026902269174 -1.8246181050682035 22.39717665533577 167 114 8 1.034609098584663 5 5595 12 5503 6 5966 9 2893
3490 -0.92233108470315817 -12.88069103196074 32.962792023856906 91 51 0 1.5630093053146954 3 24 6 25 2 14 1 14
222 1.7640404894577328 -1.2417086101179136 17.112680445668293 121 128 112 0.56422060860496293 5 1101 10 1073 3 1078 12 1045 6 1288 13 1722 8 1760 4 2174 9 2216
7363 11.386605550761978 -1.8273875165714597 22.868415312266645 219 187 102 2.2717303621866094 1 1914 9 5393
336 2.3363958126775159 -1.8477059498546176 17.683447584502179 2 6 0 0.28050491900579794 5 2086 10 2051 3 2039 12 1614 6 2170 13 1684 8 1482 4 2090 2 2014 1 1960 9 2149 11 3312
545 1.3955233745678537 1.078675254597711 17.181949057546415 6 0 0 0.16537393344213147 5 5159 10 4435
1597 6.8361485906720043 0.14430028001513742 20.929834800003864 175 121 12 1.3183880781522519 10 4862 6 5604
1452 12.712845245863043 -1.5723678056604127 22.673269322568061 209 167 59 1.0047734733761204 5 5553 3 3967 12 5378 6 5924 13 4907 8 4755
223 3.6110257541957766 -1.4721091824427281 17.435931125903746 118 122 108 0.41817256631491051 5 1106 10 1099 3 1095 12 1058 6 1295 7 695 13 975 4 1111 2 920 1 1528 9 1024 11 1726
224 2.8257780771099119 -1.6195830968707381 17.506878007066401 114 120 108 0.28167385709609549 5 1112 10 1101 12 1070 6 1301 7 1767 13 1706 8 1742 4 2109 1 1964
7317 1.4187973038197916 -6.252938370820293 26.080221412273001 130 78 0 2.0823496022870938 4 3618 1 3534 9 4447 5 3767 3 3597 12 1232 6 4072 2 4308
282 3.4260421006515838 1.7666365861105111 18.991307688943746 211 162 58 0.50127430553835428 5 1662 10 2306 3 1363 12 1633 6 1845 7 1180 13 1061 8 1207 4 2385 2 2327 1 2259 9 2350 11 2675
1398 -4.0748480337142121 -3.2434948253344773 23.21848803639072 155 106 27 1.3569653333169018 5 4219 3 3668 1 4494 11 3579
225 0.52565375679438098 -1.6252021993313506 17.374730849463926 22 26 11 1.0811524556901275 5 1113 10 883 3 1090 6 2182 7 1747 13 1676 8 2937 8 2939 2 838 1 783 9 847 11 976
1907 2.6484112924326815 -1.1352195979841169 17.0846866774354 11 15 3 0.41419782502989877 5 678 12 770 6 1068 7 699 13 970 8 787
226 -0.28033992358608389 -1.70420738357662 17.718266035640276 143 87 0 1.5048867667033115 5 1115 13 3122 1 4629
1175 8.0788647521243941 0.57031538417956162 20.40786390504724 175 123 10 0.66030795025234434 5 2418 10 2211 3 2307 12 1674 6 1174 7 1132 13 1031 8 1160 4 4800 2 3181
356 1.2413084248000483 -0.97320788723106499 16.814862455988301 111 114 103 0.35502733500068484 5 2203 10 2173 3 2811 12 2272 6 2243 7 2505 13 3223 8 4422 4 2207 2 2108 1 4589 9 2269 11 3493
7536 -8.620397509296744 -12.317917323749697 30.022594821155838 19 3 11 0.71141832785121484 5 3066 11 4587 3 3290
227 2.8175963947342506 -1.705640265463982 17.576940059302633 7 13 1 0.50788441291843855 5 1118 10 1105 3 2050 12 1076 6 2180 7 2429 13 1697 8 4298 4 1116 2 916 1 1527 9 1027 11 1732
228 3.3331478766087557 -1.7384944747634707 17.686765508220333 10 15 5 0.38864995758377341 5 1119 10 1111 3 1103 12 1075 6 2178 7 1764 13 1705 8 2959 4 1123 2 911 1 1542 9 1013 11 1718
885 -6.8095791562873806 -1.9380578390991932 21.777171598131144 145 97 23 1.4203058174813257 5 672 3 1026 6 1265 7 395
1161 2.9080796884466698 0.018350221327062696 17.101835287844729 19 5 0 0.4651880072332279 5 2346 3 2246 12 2375 13 1961 8 1852
286 2.6885744575861685 1.4042448447214333 18.523357535845829 178 158 105 0.62858981878036979 5 1682 10 2301 3 1638 12 1641 7 756 13 1019 8 533 4 2735 2 2308 1 4421
229 -3.6012562103723122 -2.4258590688814445 22.380068212819271 159 107 24 0.79811721366964328 5 1120 10 1108 12 1138 4 1072 1 1203 9 2279
230 3.2377209262190765 -1.8353772256578316 17.767561399225809 5 8 0 0.32523799966226791 5 1124 10 1117 12 1080 6 1308 7 1761 13 1696 8 2945 4 1126 2 904 1 1546 9 1009 11 1714
3959 -6.4139566057319133 0.86589268996073143 18.966179371654853 127 80 13 0.30798203598508228 3 2427 7 2638
280 1.9633105636249397 1.8336996045904623 18.276437146263621 45 26 4 0.65361875262573321 5 1656 10 4479 13 1051 8 442
3211 1.7990984982123748 -3.0518223038563321 18.785121131558739 135 80 0 1.9801528607830199 12 4028 7 4972 2 4428 6 4176
1396 8.4263488898696028 -4.9182580948748456 25.51574329111213 160 105 5 1.4189088094968956 5 3942 3 3659 10 3547 12 1975 6 4209 7 2290 13 3015 4 3671 9 1931
231 3.5969405413329105 -1.8929669448120618 17.824291136970725 9 7 1 0.41140145322906901 5 1128 10 1124 3 1116 12 748 6 1313 7 685 8 761 4 1138 2 900 1 1555 9 996 11 2383
232 2.7923228203807269 -1.9021222743667614 17.769320763712141 10 15 3 0.25858619000669492 5 1130 10 1119 3 1112 12 1089 6 1311 7 1752 13 1688 8 1734 4 1129 2 905 1 1543 9 1014 11 1721
889 3.6737784504568949 -0.53077393817708907 17.270794077716364 40 25 3 0.32935168433840795 5 1063 3 1050 7 707 4 4905 2 2116 1 4616
354 5.7186107827323269 -1.6074293679994545 22.109541664663801 195 142 36 1.5450725955231353 5 2189 10 2041 12 1064 6 2307 7 1807 13 1742
3229 -5.7948550972878001 -4.5436944985605745 24.236852987550375 108 58 0 1.2645700168338694 10 1893 6 4276 7 4799 8 2834 4 5245 9 2170
1406 -8.5855888536238432 -6.1226794923911747 25.012350548669467 91 50 0 2.5082871642590159 5 3753 3 3688 2 5122
233 5.1542835883033788 -2.6002848541837138 22.746516029896547 197 140 37 1.8289721877237806 5 1131 10 1164 6 2216 9 1398
1915 -9.3042087176993835 2.2015916667453972 17.616220487673399 104 61 8 1.7391698766341819 5 756 12 816 9 673 11 722
364 3.4024176663240486 -0.75673882703292472 16.772802498870416 95 101 84 1.033068268389548 5 2244 10 2168 12 2319 6 2262 7 2569 13 3290 8 3068 4 2200 2 959
235 2.8868322091128027 -2.041319454229626 17.913279480271793 0 4 0 0.58128582575513665 5 1135 10 1132 3 3835 12 1096 6 3082 6 4362 7 1745 13 1678 8 2923 4 1140 9 1002
3448 2.836698803766915 -0.82251228258789399 16.796654616627769 1 4 0 0.29952965322701236 5 5514 6 6003 7 2545 13 2710 8 4496 2 2938
236 3.2171946272519762 -2.1068498253729722 17.989722100982952 137 139 128 0.4302221725097003 5 1138 10 643 3 1123 4 1146 1 1559 9 816 11 1702
893 3.1445624889144241 -0.64177245164907692 16.950965666142878 119 125 111 1.2986173352769366 5 2259 3 1059 2 974 1 1471
1169 -8.1745484132818671 -1.3126269902412113 21.139746075771487 107 59 0 1.4467213720337069 5 5534 6 5817 13 4252 1 2288 9 4633
358 2.8216158523313415 -0.93123390367667591 16.889183052775579 0 5 0 0.47118494948197748 5 2208 10 951 3 2111 12 2295 6 2246 7 1798 13 1361 8 3064 4 2193 2 2084 1 2016 9 2214 11 2486
237 2.6715405956142249 -2.208421254539664 18.107861089349438 0 4 0 0.79230883771512184 5 1139 10 1137 3 1126 12 735 6 1332 7 671 13 738 8 745 2 2690
3442 4.0649373811296439 -0.74933062268851669 17.385782460612852 23 0 0 0.4093785876505544 3 5437 6 5960 7 6031 13 4791 8 4599
238 1.5977579214430766 -2.3688186247922633 18.112614861566968 104 111 93 0.71074505483422767 5 1144 10 1989 3 2000 12 1124 6 1338 7 1717 13 1651 8 1706 4 2054 2 2698 1 4879 9 2113
1404 -10.397392288453672 -6.769321866096659 26.618677391485761 124 83 21 1.9130371938540069 5 1072 12 1782 10 3548 4 1179
239 2.7858010520176371 -2.4469256410497797 18.289849473014048 5 11 0 0.41881334129960845 5 1145 10 1149 3 1981 12 1119 6 2124 7 1725 13 1656 8 1480 4 2040 2 1966 1 1917 9 975 11 1697
240 -2.4890064250843325 -3.5638398051569449 23.480419463087848 154 102 19 1.3235876034900531 10 1168 3 1094 12 712 13 708
833 5.1012195037704524 6.2868451655272519 14.98762836661243 173 124 18 1.8795138427908413 5 876 3 818 12 1406 6 408 13 779
362 1.3911977183066027 -0.75226613350518223 16.615934168209261 115 119 105 0.27923848893163006 5 2242 10 2183 3 2144 12 2304 6 2265 13 3240 8 3041 4 2239 2 2122 1 2098
1350 14.518681429654865 -7.1863060607787403 27.62372402713962 143 142 122 1.0875372816728524 10 3237 3 3454 12 3668 5 3704 8 3994 4 3430 2 4118 5 3702 1 3236 9 4000 11 4317
1859 2.3668720035245432 -0.72671782634441406 16.657154535020286 20 26 12 0.58293582753889706 5 634 12 542 7 591 13 396 8 409
242 -0.4754363639263362 -4.5250470254652244 24.549417850131519 133 78 0 0.46875392399824428 5 1181 11 1350
1255 -4.0183627686098644 3.5864832511455895 16.356058179608095 143 91 16 0.99920444037880074 3 2579 1 1258
372 -9.2434365145388373 -0.27705927769374733 20.283594850561528 131 82 16 1.3173894690274746 5 2325 10 2281
243 -3.7846373180545569 -4.8685467206679913 24.64174199724021 135 85 12 0.98384212575359165 5 1187 10 1188 12 1211 6 2105 7 1672 4 2022 2 909 1 1501 11 2472
244 -8.4299593025822652 -6.1997487013597938 16.465377013667659 22 14 3 2.4719933941120753 5 1309 10 1233
