# 3D point list with one line of data per point:
#   POINT3D_ID, X, Y, Z, R, G, B, ERROR, TRACK[] as (IMAGE_ID, POINT2D_IDX)
# Number of points: 396, mean track length: 3.6612189819326786
4798 -9.2597185163775677 -3.1627563418910989 9.4169237589893804 102 96 70 0.93848458027545389 7 837 9 1014 10 963
4799 -4.5926334562527638 -3.2721804314677505 4.0676592798981055 123 114 87 1.3586239766379238 8 1202 9 1015 10 620 11 856
5900 1.5638557098934978 -2.9474108013716589 2.7284995187549108 97 89 57 0.25665248770018395 8 4827 9 8434 10 5182
4801 -3.5263307225873932 -3.2906926025726779 3.1668883134341894 153 149 136 1.215782945949641 8 2497 9 1021 10 637 11 661
5974 -1.0967726356149174 -2.7602728161793553 2.8276818929273371 155 145 110 0.19805218289204468 7 9330 9 8989
6183 2.1778026895125828 -3.4557666710352364 1.8146186288710164 147 140 121 0.88337252206601247 8 6406 9 10342 10 8304 11 8850
5459 1.9976552929030513 -3.1762390183506275 1.956950232676824 159 154 135 0.042013620473659474 8 3857 9 5556
12106 -1.4203655730284273 -2.3984944523112355 3.820576387425985 125 119 97 0.54572197305495618 6 9090 4 5848 3 2948 2 7223
4805 -1.0571748063504995 -3.8200674957646399 2.5840019271704038 119 111 75 1.120139703563523 8 853 9 1064 10 1289 11 1673
6180 2.5213965748780973 -3.4385985757228759 1.7705367173436419 107 100 78 0.79526051152800736 8 8075 9 10333 10 8347 11 8882
7511 2.913380096313555 -2.7280702375175765 1.520886755928456 138 136 119 0.14410221906680951 9 5113 10 5632 11 10165
4807 -0.62479119362448743 -4.0533365656051439 3.3131666222708889 126 120 94 1.5604236840014891 9 1072 10 961 11 834
5157 0.060124985434733498 -3.7555064380827172 2.2275056621523128 138 134 105 0.94306367133947755 8 6336 9 3834 10 2306 11 2731
5972 2.6014313125937183 -3.1884528580623446 1.6927077005735887 144 141 123 0.51227838418458116 8 6603 9 8980 10 8957
4809 -4.2847950228844827 -6.0039706327789135 5.8016030017012374 91 87 58 1.9223896428501688 7 725 9 1080 5 738
5982 2.6732332136460282 -2.7693725742046289 1.5568654211172357 104 94 67 0.3137142635930002 8 8019 9 9056 10 10004
5467 2.9155545162178123 -3.4407970760456945 1.729196993937085 133 132 112 0.98870067631513103 8 8648 9 5603 11 5183
6184 2.3243408955720928 -3.45503233945443 1.7975412127556538 143 142 121 0.075294300590360436 8 8213 9 10346 10 8300 11 8846
4811 -2.9069791586455174 -5.4106001287849077 6.6364973535075427 116 111 83 1.6946462428590416 8 2139 10 897
7209 2.903612212114457 -4.5193220426904945 2.0389328905683257 87 80 61 0.3351094619635025 9 6716 10 4091 11 6403
8024 1.6243639857446066 -2.4726768514263395 2.9024248168992832 0 0 0 0.69359775621689512 8 5142 9 5176
4813 -0.80021725581229231 -2.7420719020381399 2.6876616832310449 170 164 138 0.52061458057383281 8 1118 9 1113 10 1157 11 1214
6179 1.6397939257346519 -3.4802371030789248 2.0702842109266677 120 113 84 0.20453315589851492 8 11200 9 10332 10 10487
8018 -0.048897550196722095 -2.6038314682159931 2.8383615413036694 133 127 93 0.6612239220663787 9 9225 10 9483 11 9373
5165 0.28227068227155278 -3.8054654322366908 2.2669624095756697 95 84 54 0.077893346332122207 8 4124 9 3863 10 2277 11 2264
5980 2.3928082736828835 -2.7734892137384679 1.5911704578342185 151 147 122 0.46456500497808373 8 8036 9 9049 10 9993 11 10101
4817 1.5803433195243011 -2.8851598540581915 2.678522991970635 109 100 69 0.22500025915219279 8 1346 9 1148 10 1185
6054 0.99223124672426011 -1.7774614949583087 3.6953998002189916 127 119 90 0.82664539889199284 8 2606 9 9792
6199 1.8581786239749218 -3.5363352339442438 2.069596074984863 146 142 118 0.14480925059481078 8 8582 9 10427 10 10660 11 8381
4819 -4.4649925768048453 -3.1971610418893266 4.1354557090175348 93 86 58 1.3787688367634834 7 1328 9 1168 10 1230 11 1304 5 1217 6 1807
4822 -0.92129225406763948 -3.3727180060500146 2.6038829962118983 126 122 92 0.67656171243342089 8 1422 9 1198 10 1704 11 2651
6196 1.8876994451316818 -3.5198131128772392 2.0633645643878369 133 127 104 0.2980416520154443 8 6928 9 10405 10 10625 11 8419
7591 -3.024165542619448 -6.4822083324174553 4.0637064393235374 77 73 59 0.46425578157458491 9 7964 10 6331
4823 -2.2882542383865343 -3.473212094833007 3.3144008630206301 177 172 150 0.81287272806386002 8 1702 9 1207 10 1253
5173 2.2062366769605894 -3.8418352152514208 1.9228252911382135 94 90 65 0.26905838032927554 8 2260 9 3917
4826 -0.010192192148404562 -3.7126166645842331 2.2070626988602022 158 152 126 2.2870699438535338 7 1590 10 1268 11 1702 5 2602 6 3992
5547 -2.0647188843127515 -6.1828130536282897 3.8421899529870518 87 86 68 0.42506020782751081 8 5969 10 3208 11 3159
6200 2.9056997337350006 -3.4851111764406832 1.7444012744062436 129 125 104 0.18452680438198038 8 7970 9 10428 10 10440 11 8737
4827 0.81801147527412521 -1.6387891017409293 3.7503532931851664 136 131 109 0.46891764426749627 8 1624 9 1253 4 1570
7225 2.8679116910822171 -4.3427354051817062 1.9950755211620115 127 124 109 0.45558966921619309 9 6884 10 4167 11 4262
8104 2.8040832865290284 -2.7662033790619178 1.5440247823753281 138 135 113 0.19790817701366056 9 9057 10 10009 11 10111
4829 1.6726150704972695 -3.8363028822858243 2.1651251042826103 139 134 106 1.0179496647368926 8 1499 9 1259 10 1133
6195 2.5727537562185701 -3.475165672208143 1.7768954194645137 143 140 123 0.12556606439189266 8 8914 9 10393 10 8518 11 8773
8098 2.6336583354638901 -2.7770258907616783 1.5663602849697229 136 135 115 0.29240474170392461 9 9034 10 9979 11 10099
4830 -0.38076656587196406 -4.0456072133369858 3.2818696059549803 128 122 90 0.36521503917951986 9 1260 10 940 11 1117
4831 -0.57748347869126559 -4.0654665597203641 3.3115354240760393 105 96 65 0.94983883424118731 8 2327 9 1261 10 1135 11 1119
5181 2.2468309583018158 -4.308912308709294 2.0514066225086074 139 136 121 0.73922677836422157 8 6085 9 3959 10 2977 11 4324
6060 -0.70549014304953328 -3.3180290636722924 2.6467711763718693 126 117 79 0.21994366047414013 8 10520 9 9846 10 8434
4833 -2.1904261795312481 -6.0832008778727547 4.739134392601974 106 99 69 1.0493174996518473 7 2235 9 1264 10 1441 11 898
6006 -0.6913795330687057 -2.6293084094263124 2.6366039442157203 141 132 103 0.20474351806737359 7 9301 9 9243 10 9646 5 7534
4834 1.7183379447272824 -3.8760236632236902 2.1711650487538536 116 109 82 0.99757567535754732 8 2101 9 1266 10 1302 11 1339
5491 3.0273793190254796 -4.6902526601607422 2.0804866171510779 122 121 101 0.48616225135889335 8 6881 9 5863 10 6284 11 6314
4837 3.1362912983677074 -4.0079812988183159 1.9312999359671976 100 94 78 1.4330515423452055 8 1526 10 8045
4838 -9.4483487221333728 -5.7480578681028485 9.3683808237582653 134 135 130 0.91210775557635237 8 1182 9 1283 10 1432
7543 2.3393144225663765 -3.5337555088941559 1.8212466528407298 143 141 120 0.71238913548360649 9 5600 10 5913 11 8635
4839 -0.29029586888363429 -5.6589207221771884 6.1530443075488721 105 102 76 0.29947622207632124 8 1486 9 1319 10 1409
6014 1.5881797211259372 -2.3640609628735079 2.9724395276428441 179 176 158 1.7498331791075814 7 3109 9 9390 10 9633 11 5968 6 5884
4842 -4.3606767627691978 -5.9766274198136955 5.6735494048710065 134 132 111 1.1302515159421964 7 1615 9 1337 10 1417 11 1506
5499 2.5494324504862251 -4.5981426556158551 2.1021851992032485 131 130 115 0.30708247250712806 8 6951 9 5899 10 3050 11 2980
4847 -1.0286866859230581 -6.1660565739288389 4.3218250830261207 133 134 105 1.6925086890676875 8 1545 11 1963
6012 -1.8114183720716828 -3.3351958115210922 3.1530942816112155 166 159 135 0.32079986026223301 8 10303 9 9337 10 9610
5958 2.6891910193883324 -2.8441771186010318 1.5814578844018801 143 138 120 0.19484995921791132 8 10221 9 8831 10 9801 11 10002
4850 -8.5319445342600382 1.1357129429313724 8.5954248048503281 160 156 138 0.51930198721577103 8 1005 9 1394 10 1845 11 1816
12096 -3.5093973793043971 -2.8834361426569135 4.0776536085965276 142 137 111 0.67431596904187163 6 9554 4 5805 3 8168 2 7362 1 6840
4851 0.058121406140900264 -6.3373980841308599 3.9250412417979392 98 97 70 0.7340755361552761 7 1794 9 1395 10 1465
4854 0.33687595201368209 -1.1061577156584252 4.2988533223853418 150 144 124 0.61664619324152858 9 1406 5 1120
7495 1.696560622091603 -2.1912095150166779 2.9365408282607532 80 73 51 2.2126966044790821 7 7828 10 5584 6 8140
4855 1.7747701174207302 -1.9372505044602004 3.0266197558861618 138 133 113 0.99586801512718437 8 1491 9 1435 10 1520 11 1192
5956 -4.83989136589671 -2.9115992563431732 3.1281729663294655 83 81 54 1.1864216048318106 8 8449 9 8824
4857 -5.9904504451883804 -1.1430309832097181 8.9568837730127306 160 153 127 0.62779222375799071 7 1100 9 1456 5 1126
5966 -0.46659407957399512 -2.7735453731161406 2.8557127620960276 75 68 39 0.40999782440856564 8 8539 9 8914 10 9230 11 9193
4859 2.1938471725589732 -2.6403721694143503 1.5782385477941208 126 121 99 0.54462294294229163 8 1344 9 1479 10 1836
8008 2.5424896904115788 -2.9920279153589924 1.6429865916996043 138 131 111 0.8813897406570067 9 4850 10 9426 11 9747
4861 -1.1970480957495457 -3.7005992780996433 2.7498882362170751 170 168 144 0.004432060341050155 8 1449 9 1494
8002 2.7412220888616594 -3.0056401534581667 1.622616500013067 143 137 115 0.17976428754712892 8 4503 10 9384 11 9720
11599 0.54872034348198562 -2.7024328941098621 2.5187994873647228 127 122 98 0.84854351426482999 6 3801 4 2158 3 892 2 927
4862 -0.45760802488515073 -3.6886653523981612 2.7503236360639036 92 86 57 0.63246981327677188 8 1000 10 508
4863 1.8560143143375332 -3.4723535835733483 2.0543270909027203 148 142 116 1.1018721623400753 8 2344 9 1503 10 1683 11 1733 5 8398
5964 1.6558234424318499 -2.7450506808783262 2.6074475439210172 102 94 58 0.63696379200150521 8 4953 9 8896 10 5338 11 9214
11955 3.2754791766714675 -3.6486210587986871 8.1753398630707839 59 58 41 0.76890439179145409 6 4821 4 4710 3 7736
4864 -0.85564716983273581 -3.5685100621660992 2.5630832727840054 118 111 82 0.15820087221355578 8 1645 9 1507 10 1666 11 1711
4866 1.4941083397994295 -3.4232087109598788 2.5206132881231582 140 135 103 0.41307441349927582 8 1659 9 1520 10 1674
7869 1.7503229366626554 -3.3406438326175012 2.0181647593493817 116 110 78 0.11329875812322376 9 10058 10 8526 11 8902
4867 -1.1613745137220262 -3.4890455727553276 2.7264251446930903 165 161 136 0.13907891678835016 8 1661 9 1524 10 1678 11 2587
5298 2.3301470318881945 -3.4772671463192655 1.8047422948331395 140 139 121 0.37580567394087383 8 6386 9 4413 10 4933 11 5151
4868 -0.67099377867639287 -3.4662820931403919 2.6902583700922573 124 116 79 0.89061008239228256 8 1663 9 1526 10 1243 11 1290
5815 2.3385009806752084 -3.1496825810713394 1.7080833839103149 156 155 135 0.3278642940162444 8 10813 9 8000 10 9058
4870 -1.0262055079053871 -3.4149482452085174 2.6482352913560905 143 135 112 0.520678873293278 8 1914 9 1534 10 1695 11 2674
5809 2.3465846644656967 -3.1564814213300796 1.7102330411248345 120 115 92 0.57268662968196482 8 10831 9 7975 10 9042
4871 -3.5873481267291174 -3.4747470062915009 3.3128837579208534 145 142 124 0.61797514665215947 8 3784 9 1539
7350 -1.8213688957164631 -3.4556737895945755 3.217432415623612 138 129 100 0.31991788528235232 9 10034 10 4779 11 4760
4872 -1.8595196908936862 -3.4024052829496774 3.166858196701559 125 119 87 1.1454093269988823 8 1962 9 1541 10 3921 9 3625 11 3864
7867 2.8380019133729837 -3.3817421401986896 1.7219414686899701 134 130 110 0.15808351765798476 9 10238 10 8500 11 8989
11909 -0.5437722813398066 -1.537193448707304 3.9123415312501337 132 126 104 1.277005401091329 6 2463 4 4371
4874 -3.2602340560041725 -3.423356075179643 3.066178584558314 144 133 113 0.67805435657683533 8 1697 9 1547 10 1229 11 1281
4875 -0.86619900207218448 -3.3467751897389122 2.6439150661623882 98 92 58 1.0748940077668767 8 1681 9 1548 10 1221
5306 2.555143896326471 -3.4245832653966017 1.7645629944840453 139 136 118 0.40590566170600428 8 6412 9 4441 10 3282 11 3231
4876 -9.2470391333401345 -3.5306914268222691 9.3917358951958523 98 91 68 0.63229334824793193 7 1432 9 1553 10 2203 11 2972 5 1099 6 999
5823 2.1137617084106162 -3.1426262149549959 1.7309643578678156 156 151 129 0.29015764089029655 8 10783 9 8037 10 9082 11 9443
5817 2.8349856275461707 -3.1371088593541376 1.6505097996446827 142 140 117 0.22376267089200566 8 10840 9 8003 10 9073 11 9444
4882 0.053712887686175007 -3.0886326040054795 2.374457661948953 147 140 111 0.78400835004780911 8 1389 9 1592 5 1312 6 1387 4 2131 3 1993 2 2322
7821 2.9197317504636056 -4.0307064489040387 1.8991064717951505 131 126 107 0.21597317974302629 9 7228 10 8036 11 11333
4883 2.67205668208674 -3.0033719817891504 1.6296751828347888 131 125 99 0.9926564798835964 8 1414 9 1600 10 1778 11 1933
5250 0.12235131800727936 -3.7653996290953224 2.264922947848063 82 73 44 0.12044098245694176 8 6343 9 4259 10 4623 11 4766
4884 -1.0188219475720455 -2.9703751935365621 2.7196627412205463 134 128 100 0.30956428825668386 9 1614 10 5258
5767 -11.987973485821557 -5.7154457298957215 13.303254903362577 143 140 128 0.19783711638514601 8 8062 9 7612
5761 2.2397033264778847 -3.8358132168491634 1.917497269362207 143 140 123 0.26746645335573782 8 7517 9 7590 10 4514 11 4707
4887 -4.3293907281704183 -2.6179579256429677 4.0953460399141166 141 132 103 0.71034269448031162 8 1287 9 1648 10 1178 11 1765 5 1487 6 1370 4 1502 3 1411 2 1589
7302 1.5119113030685294 -3.761954254480866 2.4504396926799159 171 165 141 0.74976759171927865 9 4247 10 4527 11 4594
4888 -0.49127125770940266 -2.6037460529251626 2.7519076103767199 86 80 50 0.37954086705731577 8 1828 9 1664 10 1149 11 1213
7819 2.9542397770906716 -4.0408435552416542 1.8991208355018019 108 100 79 0.20259526221141169 9 7204 10 8018 11 4485
5258 -1.4747689484047697 -3.8554066833964553 3.0683538518747402 134 128 106 0.78051572059691177 8 6506 9 4281 10 2829 11 4061
5775 -1.1882323182150367 0.36379358604791151 7.8405084140031009 41 39 14 0.19718511806857764 8 10157 9 7729
4894 -14.542459184536288 -9.4254063381170656 18.96461946976331 235 238 236 0.45265167593081079 8 1434 9 1773 10 1442
5769 -0.39573378498030187 -4.0533544432940936 3.2930867388397633 135 132 101 0.20929025863275758 8 6444 9 7658 10 7997 11 8056
4896 -1.8363622097664678 -6.4262132676098629 3.6164244397333682 57 52 33 0.44213838983504677 8 2054 9 1828 10 1914
4898 2.9197647528487241 -4.8691430386834211 2.1413552721905265 114 110 91 0.84889424837566452 8 2531 9 1854 6 6602
7628 0.39146173320020622 -5.3088664350980306 7.3921333907352169 74 72 52 0.69951302600946996 9 7142 10 6857 3 7570 2 7048 1 4750
7773 1.2171347547059816 -4.2041193560890378 2.6271775746517889 107 100 71 0.71870140646059999 9 7242 10 7784 11 7995
5202 1.219036074012283 -4.1923983125557509 2.6269229108448457 106 103 70 0.62243291289553893 8 7545 9 4053 10 4256 11 4321
6605 3.500749556892977 -0.84446021255028003 4.4740250710350304 125 122 106 0.49702974927720101 8 3066 9 7727 7 4008 5 1939
5719 1.7021434082695819 -4.0021556352137333 2.2148878438940129 135 130 108 0.45526119457459402 8 7507 9 7404 10 8840 11 4490
6598 2.6852338404527272 -3.7360025314428706 1.8420904358155394 94 90 65 0.361486316913117 8 7596 9 7063 10 11048
5568 2.6757646927459091 -4.8662165388921581 2.1728410998473087 134 132 111 1.3599252239295949 8 6817 9 6398 10 6817 5 2650
5713 2.5593328462335139 -3.9457538272441832 1.9131926444922764 133 131 110 0.65250682653168068 8 7367 9 7363 10 7619 11 4570
4903 1.8120087868959986 -3.9156452222980529 2.1943552494624212 105 97 66 1.2868822583339157 7 2217 9 1943 10 1603 11 1652
6593 -2.1710879681679032 -4.1666003788062298 0.55147504667392544 185 177 165 0.2572902847886207 8 6612 9 6809
7254 2.6692308064436796 -4.1137594629572725 1.9495794150655601 138 135 116 0.20574532815474636 9 4020 10 4304 11 4444
4904 -0.49473146751023589 -4.1466920298389409 3.3781413134213225 130 124 100 0.41165750530143042 8 2315 9 1944 10 1326
6602 -10.219787003420842 -5.6033021845326649 9.3894182121964391 73 72 60 0.44497885940156623 7 3291 8 3832
7771 2.727002278141232 -4.1928695609204469 1.9673427867473823 98 92 68 0.24969163156589036 9 7036 10 7777 11 4393
4906 -0.9280804492112269 -3.7243343194177934 2.777023983733951 164 159 129 0.30219365739534354 8 2147 9 1973 10 1633 11 1671
5576 2.6706254875434237 -4.8179256073801637 2.1528944706601871 134 130 115 0.66922494167728019 8 6838 9 6428 10 6227 11 6263
5721 2.8349693082668321 -3.9050730159161664 1.8721322725683811 95 89 68 0.34339147489374905 8 7390 9 7416 10 4440 11 4606
4911 -3.9399365158877111 -6.2388347226899397 4.7003673341331078 71 67 42 1.0280007565222393 7 3841 9 2021 5 5057
4914 -14.783757585276337 -9.9456560494038033 16.533138490849932 206 207 209 0.49960593103054923 8 6399 9 2039 10 1419
7644 -0.74842643692207556 -5.2700084543312462 7.5847116184770016 73 69 42 0.22367091209854947 9 8331 10 6931 11 6809
7853 2.7546156832132698 -3.4153533510598217 1.7410917811464595 118 112 88 0.20052798799743118 9 10303 10 8403 11 8922
4915 -15.042291013703842 -9.7676383550077155 16.826356541861941 213 216 218 0.63485082764604039 8 4017 9 2045 10 1925
5282 -0.94946372033331849 -3.7037934961696961 2.7821581053842204 169 164 136 0.19410100281291642 8 6528 9 4360 10 4631 11 4681
6621 -4.6679001185794462 -2.7895099895557895 4.0195120433009652 184 175 158 0.49758048579157216 7 7414 8 8715 9 8879 5 9132
5799 2.2445343780348215 -3.8034014110433518 1.9104660421761641 141 136 119 0.10603708288849024 8 7553 9 7937 11 10741
6614 0.050376180117002803 -3.1884206205207781 2.1371179102916478 147 139 102 0.54579527978146669 7 3642 8 4495 9 8049 10 8922 5 5060 6 5268 4 6466
4918 -14.721855997040047 -9.1468489237938932 18.722412551400268 212 215 217 0.18285097201172951 8 2398 9 2076 10 2043
5793 -2.9917198991659979 -3.3016332338724723 3.2792803785627225 98 87 51 0.10768427035801605 8 9972 9 7925 10 8328
4919 -14.845789243081805 -8.863797547635226 18.580178659938522 188 188 185 0.69352214498321529 8 3856 9 2083 10 1940
6609 -2.1466878487741701 -1.6753149591190613 1.8608765318706424 168 163 144 1.7805608604833698 8 9950 9 7759
7334 1.9137876539921992 -3.6218303130124334 2.0887299604041711 101 91 55 0.13696278726246347 9 4308 10 4713 11 4866
4920 3.110836376669722 -4.1271585254312271 1.9062788986758417 83 82 70 0.092875557933504355 8 2224 9 2094
6618 -4.7232506995851447 -2.8146201412616656 4.0201364142004241 143 128 97 0.32377817263887998 8 5035 9 8832 7 8470
7851 2.9471911871960002 -3.4176891879785813 1.7198725951706577 138 136 119 0.17547584775978833 9 10323 10 8382 11 8909
4923 0.56250360929526488 -4.2852067454954259 2.6171693576915085 136 131 110 1.0349119511781233 9 2104 5 2600
5290 2.4617062881647529 -3.5003067907782448 1.7965688168668759 144 141 124 0.42039785369447658 8 6360 9 4388 10 4902 11 5121
4924 -1.0195872445720302 -3.505937372959584 2.6697308886183686 151 141 117 0.77053476887575867 8 3894 9 2127 10 2670 11 2695
5807 2.6236197280573852 -3.7869967542665433 1.8625843587445505 148 145 130 0.15862646161531305 8 7539 9 7968 10 11163 11 10720
4926 1.6626518695110608 -3.9724598482232425 2.2069026518962547 116 107 77 0.65886473078506747 8 4178 9 2143 10 2206 11 2299
5592 -3.8378519115312821 -6.1806302829769928 5.6582378087650662 66 59 39 1.7200713437411757 8 7334 9 6515
5801 -3.0007567204372099 -3.2958310305480953 3.2742525011975889 142 136 104 0.15383026937159705 8 9579 9 7943 10 8343 11 8347
12019 1.9574995845529908 -1.988432765464939 4.6745652318877449 106 101 78 0.45843237605030029 6 4743 4 5080 3 4246 2 5057 1 4524
4928 0.60465413282231151 -4.0102503477753535 2.473932969539705 97 91 65 0.30193385129378281 8 4149 9 2150 10 1597 11 1642
4930 -0.5912039382037122 -4.1442315594661059 3.3580647697499346 130 125 95 0.16456631355883977 8 2314 9 2157 10 2176 11 2243
7933 2.5639079709824761 -3.4774120924563103 1.7802004412976118 118 113 85 0.38824800905511642 9 10396 10 8992 11 5144
4931 1.9012271760587491 -3.8559742440112625 2.1628970797721476 119 112 81 0.20107673380003913 8 4151 9 2161 10 1612 11 1661
5362 2.1591893962514996 -3.1634020090035122 1.7316453673787189 170 164 141 0.49251346386432893 8 3896 9 4708 10 5254
4932 -0.51974751420973375 -3.9843959064949352 3.2016184448477065 94 88 56 1.5383098866662592 9 2174 10 1316 11 1113
5879 2.3371076296160633 -3.8142546452646471 1.9019925104552355 140 138 120 0.19222941669737567 8 7532 9 8312 10 11216 11 10780
4934 0.91189778091776863 -3.4477967348052778 2.3858923640904957 110 104 71 1.1394932432996747 8 2374 9 2204 10 4872
5873 1.8622339879315226 -3.8622948623837488 2.1652628471295734 103 89 60 0.13315125222853116 8 7664 9 8283 10 11351 11 11064
4935 1.6409986587705634 -3.6384914972012616 2.1101549632594905 116 108 85 0.24555319456871674 8 2297 9 2210 10 2040 11 2715 5 4931
7414 -1.723078279403603 -2.9233273660472556 3.1528630577725445 170 162 132 0.25189881934941194 9 4909 10 5223 11 5213
4936 -0.86488866608058512 -3.7383872733624699 2.7871249277476147 99 93 60 0.69036539522615814 8 2345 9 2214 10 2287 11 2343
7931 2.8671232651260441 -3.1860766740975883 1.6593388515334677 144 143 122 0.38683473105604699 9 8265 10 8959 11 9352
11973 2.184218145954528 -1.9198121769833245 3.7064542666232576 5 7 1 1.675664185083753 6 9602 4 4828 1 3293
4938 -0.97192008011550679 -3.6943248084368046 2.7840774389583256 128 117 85 0.52840830253443194 8 2356 9 2222 10 2529 11 2357
5370 0.99301781427875624 -3.0760815638701287 2.5718916370140006 84 73 43 1.8480487120124069 8 4679 9 4786 10 8774
4940 -1.060224319448962 -3.5825985583972617 2.7644189723196329 175 168 141 1.2546271171763244 8 2376 9 2239 10 2693 11 3893
5887 2.7646468431165969 -3.0049160351019926 1.6206519904983545 133 128 108 0.39727689036060693 8 10553 9 8372 11 9721
4942 2.5761841136059598 -3.4174873458975594 1.7642921075834608 129 123 101 0.99525470123956372 8 2319 9 2244 10 2620 11 2613
5881 2.5437868531099359 -3.0243051460036319 1.6532747999918112 148 146 125 1.3890701086199837 8 10577 9 8329 10 9348 11 9679
11518 1.5677473940741367 -1.6499598633468286 3.6525450796207726 133 129 104 0.22279158183213921 6 1968 4 1562 3 1011
4943 1.4966350439677856 -1.9897314352522424 3.1688404260138903 90 84 60 0.49978384703192147 7 2774 11 1820
5155 -1.1059747013329391 -3.7974628200065257 2.5846316325847267 169 164 138 0.11388227107803862 8 4046 9 3824 10 4591
7885 -9.0819947194270298 -3.5479477318982404 9.4691330410574182 135 130 108 0.14652623441227655 9 9848 10 8674 11 7445
5314 1.9509044835589828 -3.4280851205990377 2.0249600488052808 140 134 105 0.56546248078342609 8 3747 9 4463 10 3870
4950 -3.9883957355096848 0.65847632626920882 8.2076026818445467 152 147 121 0.51905421215117586 7 1742 9 2280 10 2387 11 2545
5825 2.973738393259135 -4.8779709400997566 2.138146333514185 115 110 90 0.52660646770718933 8 6797 9 8046
7207 2.79927195987027 -4.5334489665277671 2.0586780315594946 124 121 102 0.388034831933811 9 5912 10 4088 11 2965
5668 2.6267919078597628 -4.2309805664846234 1.9892323365099891 84 77 51 0.2909898037019194 8 7163 9 7005 10 8827 11 4371
7366 -1.907169130760584 -3.3863773371341046 3.1715612404754849 172 166 143 0.58808965834410254 8 4582 10 4874 11 4843
4955 1.2778013125006438 -2.0685692952867925 3.1733014428374058 154 147 117 0.35243232696435173 8 1235 9 2342 10 3442
5322 0.27239071663681602 -3.4588970929406391 2.1732448263261581 108 97 65 0.27148913857996115 8 11064 9 4484 10 3861 11 3682
7720 2.7241856324461686 -4.4556655595184571 2.0414162019217055 136 131 112 0.23485117317542081 9 6781 10 7425 11 7674
5833 2.2600048080278534 -3.1255020361385522 1.7108792306486347 155 154 133 0.18969268449420484 8 10762 9 8084 10 9119
4962 -1.3816844695903556 -2.520277585224346 2.8153988254426969 104 99 69 0.18717701907499204 8 1292 9 2383 10 2445
7837 1.1967868967733846 -3.2616752869877614 2.6709875124373919 113 106 70 1.528012427796601 7 6037 10 8311 5 4015
4963 -0.0098679796027617752 -2.517333273517258 2.7769172978055932 158 153 124 0.68185888634639324 8 3413 9 2388 10 2452 11 2529
5266 2.4654858076725068 -3.5954213396689019 1.8236944544296987 104 95 66 0.49224371919774729 8 7851 9 4301 10 4751 11 5017
4964 -4.9350636514794362 -2.4985730214074255 4.3402952996630466 107 95 63 1.8919088257662922 7 1414 9 2404 8 1269 4 1081 3 1020
5783 2.8618691526406987 -3.7703366790842954 1.8318121320541034 130 131 115 0.153303069109507 8 7538 9 7825 10 11142 11 10696
4966 -1.1514576675831873 -2.7246801539997563 2.7800020192326005 171 165 133 0.92979121073855797 8 1810 9 2431 10 2468 11 1802
5777 -4.2986770378475034 0.76123038002073973 8.1794037185526332 211 212 199 0.1366175851233038 8 10178 9 7747 10 10314 11 9378
4968 -0.80333411718456771 -2.7683910938496754 2.7022218210906788 110 100 64 0.47588406089281959 8 3522 9 2439 10 2479
7835 2.7970770175572648 -3.4474960552738736 1.7450914470478585 109 105 80 0.23298922404614261 9 10363 10 8290 11 8847
4970 0.6582177918928116 -2.8576081145445897 2.2419168189369376 170 163 137 0.53641539170226105 8 1760 9 2461 10 2471 11 2808
4971 -1.3111175956035412 -2.8890601899928261 2.5876560088479583 179 172 146 1.4773034922494392 8 1348 9 2462 5 935
5274 2.3586802708615666 -3.5650271696031748 1.828237265517914 140 137 121 0.45666902438064882 8 7910 9 4329 10 4796 11 5044
4972 -2.2571377214939234 -2.8797912967012063 3.4726931996923054 141 134 102 0.54617141062711516 8 2969 9 2467 10 3700
5791 2.4923577897919476 -3.1691060351183244 1.6995516359830967 153 149 131 0.5520653865629267 8 10870 9 7914 10 9005
4974 2.6731325012268177 -2.9805582492991189 1.6230470300697721 101 94 71 0.66842501117655462 8 1686 9 2494 10 2466 11 2491
5785 -2.8409389041432522 -6.7511192281942369 3.4953789952454408 108 103 77 0.055182503561924404 7 6437 9 7885
4975 2.2557790217311964 -3.0364690043024205 1.6830852900695048 123 119 93 1.6327237880927574 8 2430 9 2507 10 2483 11 2509
4978 2.0355581370736657 -3.1182612168186559 1.7833884318140667 142 135 106 0.13743910949026583 8 2412 9 2527
7917 2.7725419637856423 -3.2372548890563215 1.6854515661629823 114 108 84 0.30911440479537622 9 9900 10 8862 11 9262
4979 -0.1508346187483896 -3.1671237709338151 2.6037015652436781 184 179 147 1.7358957515989715 8 1391 9 2531 10 8706
5346 2.6016442843352059 -3.2474001779683044 1.7082691479571561 143 142 123 0.27142788986317334 8 6554 9 4597 10 5175 11 9242
4980 -2.3004796347794749 -3.2119264517344059 3.3187375767421523 99 90 59 0.74569842580966861 7 2501 9 2532 10 3824 11 3784 5 4176
5863 2.8097504390749268 -3.1862354002356139 1.6666746434424544 108 101 76 0.26109618725519446 8 10923 9 8226 10 8958 11 9350
5857 -1.7967154591872685 -3.3209246925165479 3.1486108850065566 129 119 90 0.36939225386156443 8 10282 9 8203 10 8296 11 9203
4983 -0.90721114267441683 -3.2849296902714467 2.5106552897284575 108 98 64 0.70889774511094905 8 3818 9 2563 10 2590 11 2621
7398 1.572758100095401 -3.1872179220451353 2.2452204124004891 145 138 116 1.0011739432312181 9 4695 10 5126 11 5225
4984 1.653804032856516 -3.2466762491941452 2.0045978821416419 158 151 125 0.60079459432136995 8 2390 9 2577 10 2572 11 2591
7915 2.4021761267957293 -3.2433469820825067 1.726616850233424 113 108 83 0.48990601423583308 9 9892 10 8860 11 9258
4987 1.9664004642864608 -3.3131575002760436 1.9958527885890121 139 134 106 0.10428086777676787 8 2267 9 2603
5354 -4.4400379832679153 -3.4015346859341147 4.2270862503715882 108 102 77 1.1104255193429207 7 3329 9 4639 5 5584
4988 2.0309685438768885 -3.3157088939256152 1.8415666278313734 138 127 95 0.41444609526345888 8 2776 9 2606 10 2583 11 2588
5871 -3.2801450769269151 -3.1472212638468418 3.1328837770864868 100 88 62 0.27916327010112979 8 8087 9 8275 10 8733 11 8791
4990 1.1092628132022251 -4.2556473912131993 2.6328268943863504 95 86 57 0.97083833391089569 8 7483 9 2633 10 2732 11 4281
5865 2.3960838581833244 -3.0657314341753299 1.6800041889869333 155 154 136 0.77230737891882573 8 10639 9 8231 10 9256 11 9615
5654 2.2765193253020715 -4.348424879891847 2.0595976014632393 137 136 118 0.27362212238562944 8 7123 9 6917 10 7571 11 4290
5139 -0.25154456569343991 -3.5382029582305958 2.2046848613591998 170 164 140 0.23483064149947513 8 3995 9 3736 10 3896 11 3716
11786 -5.6186111473563232 -5.1310275595393255 7.855716771333296 99 95 68 0.099422348740808297 6 4478 4 3490 2 3065 1 2790
4997 -1.1999841689253568 -3.471911107709885 2.7307209471539351 149 144 115 0.79192319823428126 8 2408 9 2682 10 2728 11 5887
4998 -2.2653434854235903 -3.5392486684804232 3.362562336313546 124 114 79 0.87066783104381984 8 10504 9 2683 10 1649 11 1326
7191 2.987539398928782 -4.6532654955968491 2.0708425416026763 127 122 103 0.30145265891527462 9 6571 10 4042 11 6335
4999 -7.6722168257484151 -5.8828244201236641 9.9159190228592848 220 223 222 1.0594073108384516 8 10666 11 6752
5652 2.6790520042846708 -4.3322319011003358 2.0124417003053567 89 83 57 0.18237107646162204 8 7108 9 6910 10 7572 11 7933
5001 -4.8079821844532544 -5.6487458675773965 6.739868339158801 151 149 125 0.43954011984383473 8 4056 9 2745 10 3120 11 2109
5662 2.304905225470625 -4.3020981951914052 2.042652121172543 98 98 74 0.28567181888182069 8 7143 9 6953 10 5422 11 4325
5002 2.3525494671534064 -4.2869159822850298 2.0294278436543425 134 133 117 0.63509432824842249 8 6087 9 2749 10 4202 11 4336
5147 2.8366764476264072 -3.4713973677122696 1.7459940362817996 129 126 109 0.37659274887440991 8 6362 9 3760 10 3880 11 5152
5003 -15.23519675219246 -8.5832699164832427 15.801896279708854 233 234 234 0.074160299425047066 8 3934 9 2766
7704 2.5251502936710928 -4.5361330360029486 2.0872081564754228 127 128 112 0.16524483767032438 9 6723 10 7328 11 7546
5005 2.2278058540239822 -4.4420178390170655 2.0904301589471985 121 115 94 0.50246842258451285 8 6059 9 2778 10 3010 11 2782
7698 1.8045664478234691 -3.9269200055143036 2.1928941669050994 101 91 58 0.19843977974778074 9 7530 10 7301 11 11196
5007 2.5985859993585567 -4.4365870089519586 2.0522034753758871 118 115 96 0.096645703942712824 8 4267 9 2783 10 2129 11 2208
5660 2.5207865973944452 -3.738200541833212 1.8599234443167123 136 133 119 0.24154538275875992 8 7612 9 6942 10 11041 11 10601
5009 2.0059745568071774 -4.5129332455456685 2.1863011575936619 128 120 83 0.24864567681729877 8 4264 9 2793
5734 2.8708292149110917 -3.8703388006830663 1.8586041338668424 98 91 71 0.11790187442662464 8 7418 9 7478 10 11361 11 10964
5219 2.4020568351703728 -3.857706876177081 1.9064084577114715 112 106 86 0.19080546277458516 8 7482 9 4141 10 4491 11 3980
5011 2.4479223264825762 -4.4916296640332796 2.0834392127339787 135 132 113 0.3631056403956528 8 6043 9 2800 10 3026 11 2947
7271 2.3982097029166427 -4.0189569537172698 1.9548400448777903 113 107 83 0.66619674790373795 9 7278 10 4368 11 5927
5015 -14.375120880491531 -10.491632708987224 18.553417452285725 206 207 199 0.21668285149067931 8 4018 9 2826 10 2003
5732 1.8200614358222678 -3.9592295703314995 2.2016969724613094 71 61 33 0.70409825155248995 8 7551 9 7471 10 4406 11 4510
5017 -4.1675444100953554 -6.0855421098266751 5.2364170790235596 70 66 44 0.49792506942793213 7 3756 9 2846 10 3169 11 3122
5742 1.8915762470321313 -3.9328830319809693 2.1881190878272148 155 151 125 0.34765105132994717 8 7576 9 7510 10 7499
5018 2.3898330538037778 -4.8054579244871087 2.1797482533879151 137 133 114 0.71931040456222739 8 5981 9 2847 10 2093
5227 2.3210309050055224 -3.826230295564474 1.9085861433760951 137 135 122 0.62441524009406058 8 6207 9 4158 10 4525 11 3248
5019 -3.8354380487070521 -6.3086907760165545 4.6115636355267977 134 130 105 0.62287466587485185 8 6036 9 2857 10 3190
7784 2.5354415823681804 -4.1646502577977076 1.9796469776645895 139 136 117 0.15301710250702286 9 7076 10 7832 11 7724
5021 3.0675421335835469 -4.8218490035412378 2.0931447379092156 15 17 14 2.247511141396616 8 4321 9 2865 4 2986
7778 -0.23702192401857811 -4.1852600521451011 3.4091078434977868 144 140 115 0.38790635606486618 8 8575 10 7811 11 7786
5023 -3.8904648102113479 -6.3028054260475708 4.5837753640513936 136 133 112 0.50432170232971618 8 3002 9 2882 10 3189 11 2064
5740 2.5500976199614698 -3.8710961229855489 1.8927135878676908 104 98 78 0.43163496959926551 8 7441 9 7503 10 11345 11 10943
5026 -1.7843632499503277 -6.2948632869930181 4.0638891461218511 130 125 96 0.501321078348822 7 3873 9 2905 5 4927
5171 1.7544096990554268 -3.8678037680585513 2.1743642116621555 83 72 46 0.65335532207527658 8 6252 9 3906 10 2840 11 4022
7901 -2.1744582352803148 -2.9594135591615154 3.4394515149728813 163 154 125 0.42141216973877621 9 8528 10 8773 11 8659
5841 1.8903037672434153 -3.2209088751183357 1.9723224171829095 107 97 67 0.093556217496605559 8 10766 9 8120 10 8794 11 9093
7223 2.2769175220451556 -4.4211530959589709 2.0829350524040513 135 134 115 0.33785654299092144 9 6848 10 4147 11 4207
5684 2.5640878265037821 -3.7449333174054469 1.8582899844695182 102 97 76 0.09310789203268284 8 7595 9 7112 10 4603
7382 2.7155903087104574 -3.3942748680878676 1.7385789457556227 134 133 112 0.35236483351576925 9 4458 10 5042 11 5957
5034 -6.8879569883416796 -1.7055240329915986 9.2535267194003463 153 147 117 0.49186362770674485 8 5513 9 2968
5179 2.8272151786258313 -3.8919865635646933 1.8693980939942501 136 131 112 0.30596620138705388 8 6164 9 3951 10 2847 11 4008
5338 -2.957547835380085 -3.4407840678679853 1.2652740211892588 93 87 64 1.5028381479584239 7 5473 9 4564
7736 3.0189604606956708 -3.9254111748542875 1.8589262818139922 136 134 113 0.13128710635838675 9 7358 10 7551 11 11098
5039 0.50982160907298191 -4.0982803433592112 2.5232875553258172 144 137 111 0.2694676533334972 8 6226 9 2992
5692 2.9110619220683853 -4.0558897500608095 1.907541325458304 86 79 61 0.27167205339983369 8 7263 9 7183 10 7992 11 11380
5041 1.5424544897851717 -1.6741077346151592 3.1193884463892538 135 130 106 0.54396622162828989 8 2583 9 3022 10 3356 11 5634
5638 2.4102796324329732 -4.3950507142014228 2.0603281294906139 139 137 125 0.38829488454661437 8 7083 9 6859 10 4157 11 4233
5123 1.8012603855950269 -3.374852842570645 2.0174681985113501 105 96 65 0.68596306043517608 8 3959 9 3673 10 3821 11 5170
11776 -0.95527234128895655 -1.7525337559613834 4.2166889825317293 144 143 122 0.61841447970875674 6 4641 4 3404 2 7673 3 8788
5043 1.5378384632220223 -1.7974364520141051 3.2152337843319847 160 155 129 1.1738440653369191 7 8392 9 3038
5046 1.7294419136581076 -1.9033245392549059 3.0072168199703544 127 122 100 0.041478948097862463 8 3181 9 3052 11 2485
7175 1.9203035665041841 -3.5333531170608548 2.0540383962878725 102 89 54 0.61321134157173829 9 4387 10 3951 11 8402
5047 0.064382042044271504 -2.1058641299518515 2.7114530065690285 95 90 61 1.6708413413721559 7 3038 9 3072 10 5705 11 3213 5 5719 6 3073 4 2497
5636 2.399980693510777 -4.4041037291704557 2.0644503704383887 108 104 81 0.66130556853183553 8 7078 9 6853 10 4154
5646 2.4049603896917136 -4.3726123543276563 2.0538356310038894 132 131 113 0.25053822308767493 8 7100 9 6882 10 7532 11 7859
5050 1.1042173941485591 -2.0316649240714471 3.2086545765746064 125 121 94 1.6295138978725665 8 1925 9 3093 10 3432
5131 -0.96311266721793842 -3.513490769759144 2.5978885803870995 137 130 102 0.33294324521141078 8 4362 9 3704 10 3930 11 3799
5053 1.149599740160121 -2.0691716722753584 3.2781803014196229 93 84 59 0.49809525939451821 8 2666 9 3116 10 3458
7682 -8.544523973129694 -3.2788473751602956 9.8400867735500164 91 82 53 0.66657245286144617 7 4860 10 7193 11 7535 6 4874 4 3592
5055 1.4997680691999431 -2.2259057741149837 3.0131540753352168 156 153 136 0.41182448833693996 8 3283 9 3136 10 3480 11 3512
5644 2.5710470292997583 -4.367396675067849 2.030341834408298 133 131 115 0.24057163745221255 8 7088 9 6877 10 5314 11 7865
5718 2.3174958310174936 -3.9380583849697119 1.9389928509858527 113 109 84 0.18569674428614019 8 7399 9 7400 10 7270 11 11084
6439 2.1364357299626624 -4.3506962882780567 2.0793808259508979 160 155 136 0.50664596081880042 8 4253 9 2755 7 3889
5058 1.5637729040589383 -2.2572987381558258 2.9593045633619028 142 136 122 0.3125535820643246 8 3293 9 3143 10 2436
5203 1.5091345591284198 -4.1758568954584572 2.5793744256835027 157 152 128 0.84520368322433281 8 6209 9 4054 10 4261 11 4326
5062 1.6819604977169416 -2.3377373700698239 2.9822059872335482 74 66 42 0.33555473008031483 8 5235 9 3182 10 3512
6436 -8.5582154389475189 -1.6384697914552184 9.3831051170093982 140 133 105 0.36332784091830722 7 4031 9 2673
7255 -0.47396313937667212 -4.118899580845393 3.3521549372203654 100 94 62 0.62910121781114836 8 7616 10 4307 11 3522
5413 2.611106993317895 -2.7137554553539363 1.5505030658947716 141 138 121 0.58243354882604881 8 4790 9 5125 10 5638 11 5698
5716 2.6609628586521925 -3.9297019815527885 1.902043964130925 133 127 111 0.42191173093724826 8 7378 9 7389 10 7377 11 11090
5065 -0.14719190972263083 -2.5426244308622961 2.8089081858856848 102 95 59 0.55745043530827465 7 4358 9 3231 10 3518 11 3521
5726 2.9630210461621509 -3.8888166002831781 1.8536814909506367 93 87 67 0.28757710003490816 8 7395 9 7434 10 6588 11 11015
5066 1.4689848726498311 -2.4426176845373289 3.2333964005006823 138 133 101 0.51174365909175934 8 2729 9 3236 10 5376
5211 2.6921267476948905 -3.9181640570206278 1.8914868276115897 104 98 77 1.0853583371348676 8 7387 9 4095 10 4427 11 5880
6440 2.2048340462537004 -4.3904865019854595 2.0780803742923148 124 123 103 0.88923421728119501 8 4306 9 2765 7 5464
5067 0.12294858672791624 -2.5988535790500826 2.8081134714538885 175 171 144 0.82559768686469304 8 3448 9 3260 10 3532 5 2952
7465 2.9035988222089277 -2.9165670369149548 1.5810519874233011 127 124 101 0.61444466160842903 9 4907 10 5472 11 5598
7768 3.0098686010538409 -4.1901934767093065 1.9363197076100545 132 127 110 0.43652921114803983 9 7022 10 7763 11 8693
5069 2.0395115039876579 -2.6468003432343257 2.3500472467371378 68 61 32 0.83667491253387938 8 2825 9 3277 10 5461
6435 -8.75514474355586 -1.5571706409515542 9.3516907687054616 113 109 80 1.6883790386194621 7 2147 9 2672
7762 2.9815458879451815 -4.2096428801920265 1.9426335326893385 103 96 80 0.30758736457369246 9 7001 10 7726 11 8145
5071 2.0244567487211422 -2.7397798685786752 2.2237741548082472 105 100 69 0.041523881965290048 8 4905 9 3302
5421 1.4980944931828832 -2.3156839836184457 3.2614459460123326 112 101 69 0.52079112149004225 8 9168 9 5210 10 3528 11 3581
5724 2.5496867666663188 -3.9161943673028747 1.9071816955217722 136 135 115 0.11286167550265228 8 7401 9 7423 10 6950 11 11051
5073 1.293379542491268 -2.6772149790780038 3.0349632665584769 106 101 72 1.937208596915146 8 2803 9 3309 5 1713
5798 -4.5771454273706791 -3.3302792558774037 4.1089900858005066 152 147 130 0.48763742211101518 8 8179 9 7936 10 10613 11 10843
6455 2.5138283233688115 -5.8701999519609274 2.9131327924890513 88 87 69 1.744069552436718 7 3927 8 3544 9 2922 10 3229
5075 -1.2246499960337753 -2.8182592415953303 2.7039247421363135 122 113 78 1.671833772483253 8 2868 9 3324 5 7432 7 9455 6 7458 4 6834
5078 -0.89467332450761239 -2.8203991467748248 2.7404773712908685 167 162 133 0.25880810105393465 8 3540 9 3332 10 3601 11 3565
6452 2.709827076260336 -5.7283193788302489 2.9895584395610149 110 108 93 0.45126593540171828 8 4340 9 2910
7335 2.7268742300893649 -3.6450431320267089 1.8103267956522868 116 110 86 0.33553854773979297 9 10725 10 4714 11 4931
5079 0.37541585000073241 -2.8274746680615181 2.4773868031088742 92 83 53 1.0061140999136633 8 2883 11 5401
5796 -1.4763532770343311 -3.258886124047546 3.0587360729801052 146 136 109 0.23742665936077711 8 5818 9 7930 10 8391 11 8398
5082 0.21687866339753734 -2.8388876769866322 2.6632283890750346 88 77 50 0.34578330381068056 8 4891 9 3350 10 2516
5291 2.9067780517615742 -3.4734020222312525 1.7381151643249109 91 84 65 0.90706799613767541 8 7986 9 4394 10 9190 11 5145
6456 -12.289053712836301 -11.672067326829382 13.274725469837701 133 131 118 0.64343235761865714 7 5814 9 2923 4 4552
5083 -1.716067620629524 -2.8872402645598276 3.1629367789126199 132 121 89 0.21891058611213599 8 2858 9 3370 10 3667 11 5233
7481 1.4367839048271649 -2.1979684834070907 3.1466777639643828 154 152 131 0.52291418362515873 9 5276 10 5536 11 5426
7848 2.9253685168631436 -3.4219762250790429 1.724642648839358 131 130 110 0.38960278948865595 9 10329 10 8365 11 8898
5085 -0.55746879935948979 -2.9045414760585393 2.8267121758598144 94 89 67 2.4135781639057985 8 1134 9 3384
6451 2.7145277996325894 -5.7004547594738764 3.0694125370396046 111 107 95 0.51809977006315222 8 4338 9 2906 10 5842
7842 2.302390720974461 -3.4407525192223427 1.7977185739708748 145 143 123 0.11704306461470526 9 10325 10 8340 11 8880
5087 -1.7089267942235851 -2.9312777263320662 3.1550401875945675 145 135 108 0.22754799497076222 8 3555 9 3389 10 5875 11 5202
5437 -6.0583142169794533 -0.97825185663453151 8.9106508487800102 149 145 118 0.29641619746413927 7 8967 9 5328
5804 2.450078234450781 -3.15550678803625 1.6985502601672038 123 118 91 0.30427509509059308 8 10841 9 7963 11 9407
5089 2.2792794597882429 -2.9533979305620184 1.6571484866742288 134 130 103 0.44941501661354816 8 3781 9 3398 10 3525
5750 2.5887018221521636 -3.8560389492088465 1.8877037798017817 136 133 118 0.10078518622986191 8 7466 9 7533 10 11319 11 10916
5090 -0.82828977561460781 -3.03264891308678 2.822118662501893 130 124 90 0.25933706894784325 8 4777 9 3424 10 3702 11 5227
5093 -0.96444158659190404 -3.0890344233678326 2.5990275307919886 103 91 59 1.0764964735767162 8 4678 9 3445 10 2643
5094 -4.5393155830226704 -3.1312065583008621 4.0667806462017548 131 124 100 1.0051127455337263 7 4308 9 3448 10 5921 6 8184 3 8053
7287 2.3755249755530086 -3.8965551952516435 1.9181131226851162 139 134 114 0.34243490480329331 9 4121 10 4459 11 4623
5095 -0.8882902960979947 -3.1250845220599919 2.6610217005309287 141 135 101 0.54469697239849113 7 2434 9 3460 10 5167
5748 2.3409207908845082 -3.8707214634436342 1.9158301228560684 144 142 127 0.18989507855496257 8 7468 9 7526 11 4661
5097 2.3182839070017089 -3.0856435704702418 1.6941703495599676 143 141 119 0.54064972112412346 8 3854 9 3474 10 3618 11 3504
5758 1.8455738664708148 -3.9040444770954563 2.1844471817045465 112 105 73 0.11132502408726271 8 7618 9 7559 10 6799 11 11160
5098 -0.013332195947718057 -3.1319836471903932 2.3375680002160855 160 155 135 1.5482052905477333 8 1711 9 3477 6 5346 5 8412 4 6595
5243 0.24374428203549026 -3.8107189863551474 2.267150214911668 141 136 105 0.33612331519631045 8 6304 9 4225 10 4570 11 4722
5099 0.28067081478861533 -3.1673539221183575 2.25429222774576 99 89 56 0.57839532536746507 7 2354 9 3501 5 3925 6 4046 4 5075 3 6122
7800 2.4413278379855354 -4.1191952718587768 1.9790240073391696 142 136 122 0.26140780599041857 9 7139 10 7912 11 6797
5103 0.26314347937858185 -3.2108297361329003 2.1782992892629163 146 140 101 1.4807028255315866 7 2332 9 3534 10 3712 11 5285 6 2739 4 3802 3 3430
5756 2.648918547429342 -3.8454572841182921 1.8768668328170766 133 132 115 0.20718430146285521 8 7473 9 7547 10 11295 11 10887
5105 -3.5322374144041588 -3.3672957778858419 3.2129352708901688 178 175 156 0.96972716795108471 9 3570 10 2633 11 2675 8 3746
5702 2.571849064732842 -4.0076853067885958 1.9313169404705246 95 90 68 0.32380906895864381 8 7317 9 7279 10 8091 11 11254
5106 2.4310827780902828 -3.2104521405623117 1.7170513014440358 145 142 125 0.22372870017509411 8 3929 9 3579 10 3681 11 3560
5187 -4.9320762358367976 -5.6310197446560979 6.6749361065965456 119 113 84 0.34564376154181792 8 8435 9 3972 10 6201 11 6204
11840 3.121925136105411 -2.5582956764853177 1.8894996295843285 124 118 96 0.63324889350593361 6 4042 4 3769 3 3544 2 4038
5107 1.8782527966704332 -3.2280064403024986 1.9749481432767817 136 130 104 0.36366060099121189 8 2397 9 3582 10 3726 11 3611
5110 -1.6606543717715174 -3.3566539344104211 3.1306296453154605 171 162 133 0.98604386210060324 8 2470 9 3602 10 3895 11 3843 5 2898
7239 -0.69774783414509045 -4.207388100712925 3.4680120602013509 107 103 78 0.086385008888452963 9 7512 10 4259 11 4219
5111 2.6488944182244181 -3.229910948189946 1.6979513374697723 139 136 121 0.36002239551816739 8 3944 9 3603 10 3698
5700 2.2799694137407758 -4.0320412878651508 1.9690449956096656 104 98 76 0.11709682283948078 8 7315 9 7267 10 8063 11 11289
5113 -2.0869772901316175 -3.4067603793472507 3.2416618444388168 184 177 151 0.3490253395056544 8 3765 9 3626 10 3932 11 3880
5710 -5.1712543942547207 -5.2937261405495688 7.9285866560917313 156 153 136 0.61353723377286995 8 10738 9 7321 10 7077 11 6862 6 9564 4 3488 3 4343 2 5222 1 5376
5114 -8.9076510903155093 -3.6545506695792636 9.624712469229145 119 117 96 0.56085632857810341 7 4264 9 3628 10 2888 11 2988 5 3529 6 3727
5195 2.1342220300303421 -4.0927735739542923 1.9801011909641606 124 118 96 0.74825141164194076 8 6124 10 7976
5115 2.8391546600105899 -3.2717631055250869 1.69024807037003 133 129 110 0.11204205604334774 8 3972 9 3641 10 3725 11 3591
7752 2.4491067925376289 -3.9510246104169711 1.9239860348656446 106 99 72 0.4461440760818956 9 7362 10 7676 11 11118
5117 1.6912305986129701 -3.34430675930864 2.0222512251320413 150 144 120 0.26879223086386833 8 3935 9 3655 10 3797 11 3655
7746 2.870947571866012 -4.2753291730976484 1.9758126636629751 127 125 104 0.1960463231912184 9 6948 10 7641 11 5799
11343 2.8889903254002478 -2.6663689009029952 1.5071487339820826 106 99 75 0.36464506091402216 5 6722 6 6644
5118 -3.2957921094904763 -3.5233323236351599 3.2102906890438754 154 152 131 0.54723046086960336 8 4508 9 3657 10 2679 11 2732
5119 -0.63137968405882561 -3.4433586620161227 2.655536074470112 138 127 94 0.43903148216129184 8 3865 9 3665 10 3899 11 3787
5708 2.3144617855537311 -4.0055812289174684 1.9576709411753288 103 97 73 0.15090742288457829 8 7341 9 7303 10 8804
10675 -0.58803485656401377 -3.30484636504195 2.7228423484589617 112 108 72 0.16210206968991361 5 4007 6 4136 4 5207
5120 0.042546723029558094 -3.423136400796186 2.1721739002738798 160 155 126 0.34816009008483062 8 3947 9 3668 10 2756 11 2622
5121 1.891603019000339 -3.3655428298192516 2.0160352410267848 140 135 106 0.48563343265129555 8 2994 9 3669 10 3815 11 3233
6064 -2.8139640191480502 -3.3998496100764477 3.4855383189011033 93 84 54 0.28588541647777743 8 10248 9 9887 10 10620 11 10687
5122 -0.71384136418727506 -3.4644600237220433 2.7137061153900235 58 53 31 1.267285158615705 8 2409 9 3671 10 3288 11 3819
6589 -1.6918403255615735 -5.8902023778010149 5.3725413420222798 62 57 35 0.45415906958511165 8 6158 9 6579 10 6631 11 6625
5125 -1.8695327186577984 -3.527737693500812 3.2486354865122031 133 126 94 0.42901116124595751 8 4511 9 3677 10 4004 11 2403
6068 -0.96660315191339086 -3.3554390751742167 2.607997241955009 90 80 51 0.18291705020710633 8 3831 9 9910 10 8413 11 5087
5127 -1.0970528507472577 -3.4959690712800908 2.7271333735216845 163 156 127 0.98722885785573888 8 3876 9 3684 10 2760 11 3824
7094 2.8230054361841304 -2.7560897239978885 1.5376123950605041 130 129 109 0.069852435997435056 9 3287 10 3435 11 5677
5128 -1.1350651964631879 -3.498991486093264 2.7267059619569056 103 90 57 1.8664344329471563 8 3877 9 3686 10 2671 11 2701
6587 -0.3345271595166025 -5.9670781274063209 5.2253912501948792 51 46 26 0.32456561007142964 8 7302 9 6474 10 6582 11 6115
5129 -3.3119918602407714 -3.5835324796683548 3.2442376879356472 153 150 131 0.46561477053426337 8 4472 9 3688 10 2694 11 2751
6072 -1.5403226167407764 -3.3853631593003639 3.1152302763045543 149 137 107 0.42910785089965814 8 10408 9 9928 10 10531 11 10519
10629 -1.5767174294491209 -6.8692656012993636 2.0767051419306921 131 131 109 0.63206676705384912 5 3686 6 3806 4 4937 3 4697
5130 -4.7989818465507375 -5.7231834481668393 6.4276403666920734 125 124 105 0.3120925524427231 8 4145 9 3689 10 3129
5133 -0.35545166738796125 -3.5062337228045428 2.66538936302678 183 180 149 0.78598700818693545 8 2383 9 3709 5 2528 7 1717 6 2689 4 5162
6076 2.5816966048825356 -3.2612769199440641 1.7144996041820451 145 144 124 0.17835349279794982 8 11046 9 9941 10 8808 11 9216
11198 -13.946262586444938 -14.684587278276044 6.7948651121842305 39 34 12 0.46679391204037851 5 4769 6 8729 4 5307 3 5375
5135 -0.65681199256378164 -3.5512787893866729 2.7424770800742224 99 94 63 2.2638653068694889 8 4372 10 3983 11 4792
5137 1.7103178620816959 -3.4441401125513949 2.046474936591856 112 106 77 1.0546208660040564 8 3984 9 3725 10 3876 7 7268 11 8656
6016 1.4959476103030604 -2.3032596069310709 3.2444431679341958 126 118 88 0.41576201730741857 8 9183 9 9407 10 5454 11 9947
